ply
format ascii 1.0
comment author: PIX4Dcatch
element vertex 1251
property float x
property float y
property float z
property uchar red
property uchar green
property uchar blue
end_header
3.000729 6.779004 4.677841 166 165 152
3.122885 6.75483 4.679352 160 156 147
3.243843 6.732134 4.682928 157 155 147
3.364492 6.706211 4.680988 158 155 145
3.483898 6.681608 4.680833 153 149 140
3.602265 6.657738 4.681549 153 148 137
3.719672 6.63203 4.678853 141 134 123
3.835873 6.605485 4.674343 120 112 103
3.951112 6.581718 4.674155 145 136 124
4.065458 6.558593 4.674735 126 116 107
4.179192 6.537016 4.677701 77 39 39
4.292216 6.515759 4.680958 141 132 120
4.404457 6.494486 4.683921 142 131 120
4.516629 6.47511 4.690035 148 137 126
4.630261 6.460405 4.704483 152 143 131
4.742101 6.442239 4.712514 149 138 127
4.854845 6.426554 4.725014 124 115 105
4.694321 5.824267 3.660344 255 254 255
4.798021 5.844274 3.729553 255 254 255
5.36627 6.290764 4.673378 134 124 115
5.471584 6.272285 4.678639 127 116 105
5.569177 6.246626 4.669209 130 119 108
5.667279 6.22295 4.663278 122 111 100
5.761187 6.196734 4.651647 104 92 83
5.85593 6.172674 4.643918 108 97 86
1.545263 6.968948 4.26422 155 153 147
1.703565 6.900442 4.208696 155 151 144
2.011453 7.075992 4.587732 150 148 140
2.124437 7.079041 4.63003 156 155 145
2.243927 7.072939 4.660055 167 166 157
2.376661 7.041773 4.654942 179 178 169
2.934882 6.252114 3.594712 255 254 255
3.010781 6.916996 4.668546 172 172 163
3.132848 6.901299 4.684293 165 163 155
3.255967 6.879402 4.690609 160 158 150
3.37913 6.852264 4.688671 156 152 145
3.500941 6.827395 4.689865 152 148 139
3.621743 6.803825 4.692774 134 127 118
3.741517 6.768044 4.676083 118 111 100
3.85972 6.740252 4.671469 134 127 117
3.977324 6.718742 4.676564 135 128 118
4.094123 6.696596 4.680391 117 104 97
4.209717 6.672496 4.680736 140 131 119
4.325072 6.651213 4.685442 141 132 120
4.439329 6.628755 4.687932 149 140 128
4.553036 6.60712 4.691539 147 136 124
4.666841 6.587534 4.698409 121 111 100
4.780066 6.567941 4.705075 153 140 125
4.895213 6.552974 4.719676 136 125 114
5.009913 6.537388 4.733151 147 136 125
4.811386 5.907796 3.674288 255 254 255
5.416388 6.414037 4.673473 141 132 122
5.524805 6.396411 4.681648 135 123 114
5.62225 6.36778 4.668825 110 101 91
5.713863 6.335227 4.647877 109 98 89
5.804197 6.303687 4.628107 92 80 72
5.894628 6.274238 4.611664 80 69 64
1.423006 7.108116 4.218492 143 143 140
1.561236 7.066813 4.201419 149 148 143
2.11224 7.240548 4.636202 156 154 144
2.240235 7.223421 4.651775 161 159 151
2.373167 7.195555 4.652973 164 162 153
2.507241 7.162624 4.647011 160 159 150
3.022876 6.360296 3.62 255 254 255
3.102567 6.386494 3.684474 255 254 255
3.142864 7.055774 4.691957 168 166 158
3.26967 7.026751 4.689474 164 163 154
3.395435 6.996002 4.684088 151 147 140
3.519768 6.965301 4.678318 133 129 122
3.642812 6.928185 4.662599 119 116 108
3.763958 6.899335 4.658559 126 121 112
3.884861 6.885826 4.677235 76 38 37
4.004818 6.863214 4.682084 146 138 128
4.123302 6.836314 4.680083 143 136 125
4.241032 6.811419 4.680825 144 137 127
4.358198 6.788199 4.683873 149 140 128
4.474315 6.764389 4.685708 134 123 110
4.589628 6.740936 4.687816 137 128 114
4.704705 6.719092 4.692241 138 125 112
4.821189 6.701807 4.703888 138 125 112
4.935739 6.681419 4.710308 141 130 119
5.048882 6.659703 4.714302 140 128 117
5.157143 6.631583 4.707214 147 135 126
4.924662 5.983458 3.66957 255 254 255
5.578719 6.523724 4.682058 121 112 100
5.665977 6.481121 4.646715 84 75 67
5.753559 6.442289 4.617081 90 80 75
5.838404 6.40371 4.586947 113 102 92
5.923822 6.368393 4.561843 92 85 76
1.447158 7.19713 4.142822 142 144 139
2.376227 7.340589 4.631981 121 119 111
2.509823 7.312391 4.633882 164 160 150
2.638346 7.295331 4.649821 172 169 159
3.119654 6.458837 3.626596 255 254 255
3.205032 6.477547 3.679295 255 254 255
3.285282 7.170877 4.675979 163 160 152
3.413568 7.133678 4.663619 138 133 126
3.540038 7.094595 4.648052 134 130 123
3.787461 7.0475 4.658761 146 140 134
3.910984 7.036408 4.681517 144 138 129
4.033175 7.011337 4.684263 139 132 121
4.15408 6.98417 4.683675 154 147 136
4.274104 6.958211 4.684506 140 130 119
4.393276 6.932988 4.686104 110 101 89
4.510787 6.905657 4.684233 146 133 119
4.627878 6.880518 4.685306 133 122 109
4.744336 6.856315 4.68749 139 128 115
4.86203 6.836786 4.69661 138 125 113
4.975802 6.810624 4.69522 138 125 113
5.08705 6.782104 4.689739 134 124 110
5.194311 6.749515 4.677321 142 131 120
4.942093 6.053097 3.622985 255 254 255
5.039279 6.059086 3.661514 255 254 255
5.694694 6.579308 4.593907 119 111 103
5.776916 6.533497 4.555191 98 90 84
5.853622 6.485856 4.512199 70 59 53
5.916148 6.428638 4.451389 70 39 28
2.376739 7.496336 4.617794 148 144 137
2.510281 7.473169 4.627249 157 154 146
2.641145 7.456156 4.644045 160 159 150
2.774089 7.432065 4.652097 170 167 157
3.222049 6.552025 3.622081 255 254 255
3.308956 6.579233 3.684191 255 254 255
3.686247 7.212042 4.634931 145 141 133
3.812129 7.207368 4.666557 149 146 136
3.937583 7.18558 4.675408 153 150 140
4.062484 7.163859 4.684183 154 149 139
4.186377 7.139554 4.689234 110 101 90
4.308123 7.109151 4.685572 157 146 133
4.428801 7.079983 4.683221 135 126 114
4.548766 7.052697 4.683148 138 127 116
4.667326 7.024692 4.681702 136 125 112
4.784861 6.997192 4.680615 136 125 112
4.90109 6.969476 4.67885 135 122 109
5.014395 6.938458 4.671839 134 122 109
5.122784 6.901495 4.655482 117 105 94
5.225648 6.859112 4.630294 122 111 101
5.324607 6.815094 4.601771 100 89 81
5.054398 6.126106 3.608853 255 254 255
5.163572 6.145048 3.666713 255 254 255
5.750435 6.57103 4.406704 78 50 40
5.824531 6.522497 4.364737 83 63 56
5.891603 6.47096 4.316685 72 44 32
2.643318 7.62566 4.640652 156 152 145
2.778779 7.601382 4.649761 161 158 150
2.918661 7.556668 4.634604 162 157 148
3.329106 6.638014 3.605481 255 254 255
3.420292 6.655516 3.653934 255 254 255
3.582526 7.351501 4.57148 164 160 153
3.709067 7.367096 4.627849 160 156 148
3.837495 7.364662 4.662223 161 156 147
3.965921 7.348861 4.679883 137 132 126
4.09312 7.32359 4.685343 150 143 133
4.218986 7.295432 4.686806 134 127 116
4.343259 7.265011 4.684975 137 130 119
4.466254 7.234759 4.682981 138 128 117
4.58831 7.205757 4.682279 137 128 116
4.707578 7.17239 4.675304 132 121 108
4.826005 7.14106 4.670635 131 120 106
4.940771 7.104919 4.65888 109 98 85
5.050637 7.062911 4.638361 122 109 96
5.156216 7.017773 4.612681 97 85 76
5.256348 6.968398 4.580115 86 78 72
5.351701 6.916875 4.543472 120 110 102
5.441857 6.863148 4.502559 107 97 92
5.179635 6.214069 3.614532 255 254 255
5.307245 6.251854 3.69896 255 254 255
5.737318 6.620507 4.285238 91 66 55
5.800232 6.561207 4.229418 83 61 53
5.874496 6.518101 4.197154 74 40 28
1.777172 7.237372 3.723414 109 105 99
3.532617 6.735744 3.626962 255 254 255
3.73273 7.524144 4.615797 156 153 145
3.864395 7.538786 4.670364 150 146 138
3.995806 7.522521 4.688311 138 130 122
4.125587 7.494071 4.691394 138 133 123
4.253798 7.46262 4.69048 139 131 123
4.380059 7.42828 4.685599 138 130 120
4.505012 7.395004 4.681607 126 116 108
4.627908 7.35998 4.674967 132 123 112
4.747074 7.319183 4.660444 101 91 81
4.863143 7.276244 4.642512 122 111 98
4.976698 7.233221 4.62377 96 83 72
5.084788 7.184175 4.59636 96 88 82
5.18634 7.128747 4.559554 126 114 105
5.284146 7.073375 4.521756 66 48 43
5.372682 7.009361 4.471114 86 70 63
5.45036 6.936294 4.406697 89 61 51
5.519385 6.859138 4.334995 90 65 58
5.218955 6.313128 3.604382 255 254 255
5.320793 6.319125 3.640287 255 254 255
5.784375 6.606437 4.111174 80 51 40
5.855744 6.561471 4.078198 70 45 34
1.749265 7.247036 3.558821 255 254 255
1.833041 7.267145 3.604363 255 254 255
1.894747 7.327047 3.688354 120 114 109
3.54873 6.834951 3.592744 255 254 255
3.646053 6.834327 3.618815 255 254 255
3.891847 7.708 4.663901 153 147 138
4.02685 7.701701 4.693989 145 139 131
4.160408 7.678685 4.704975 143 138 128
4.291105 7.642561 4.700509 136 128 120
4.418828 7.600332 4.688395 138 128 119
4.544113 7.557073 4.674458 123 116 105
4.665809 7.509552 4.654764 123 113 104
4.782693 7.455936 4.626929 97 87 78
4.896555 7.402942 4.598958 96 88 81
5.006309 7.348001 4.567679 111 100 90
5.111668 7.291163 4.533068 60 46 40
5.205182 7.218812 4.477842 75 59 53
5.28361 7.129066 4.399005 83 49 35
5.357733 7.043457 4.323615 91 71 64
5.428291 6.962401 4.252336 83 55 46
5.492516 6.881238 4.179196 84 56 48
5.55668 6.808417 4.115371 95 61 48
5.360264 6.418483 3.625082 255 254 255
5.472902 6.433963 3.673383 255 254 255
5.737438 6.615135 3.948845 13 15 17
5.791471 6.554821 3.896227 122 124 120
1.688303 7.452958 3.603048 111 117 114
1.842575 7.367173 3.553481 152 153 147
1.949576 7.353779 3.567937 255 254 255
2.021081 7.404449 3.640747 112 107 102
3.662821 6.973354 3.6236 255 254 255
3.763044 6.952078 3.627893 255 254 255
4.059528 7.891056 4.701827 144 138 131
4.197043 7.872974 4.719485 137 129 121
4.45866 7.777024 4.687886 122 114 106
4.581387 7.712618 4.652519 94 87 79
4.699824 7.647028 4.614749 99 93 86
4.813531 7.579584 4.57375 113 105 98
4.923701 7.514136 4.533918 94 84 80
5.021197 7.428924 4.46976 76 66 60
5.107533 7.33269 4.390939 87 59 49
5.191095 7.244688 4.320096 87 59 52
5.267992 7.156207 4.246959 85 56 46
5.338836 7.068527 4.173052 75 43 33
5.405214 6.984094 4.101389 85 56 47
5.46487 6.899162 4.027399 81 46 34
5.52608 6.825163 3.965403 35 23 23
5.574484 6.742 3.890274 46 45 47
5.633894 6.679968 3.840472 146 147 145
5.683222 6.611774 3.781445 147 150 148
5.740001 6.557386 3.739037 144 145 143
1.502266 7.69928 3.642575 82 82 85
1.772184 7.602331 3.615695 91 92 91
2.05621 7.462216 3.549191 255 254 255
2.136848 7.503978 3.612113 249 249 250
2.202173 7.586375 3.71181 106 100 93
3.884966 7.075091 3.637677 255 254 255
4.615531 7.856515 4.612121 108 102 95
4.725133 7.756008 4.539869 67 58 56
4.825211 7.647403 4.457009 72 60 55
4.915175 7.532012 4.364705 75 45 36
5.006526 7.439316 4.295531 88 64 56
5.092654 7.349216 4.227599 81 50 37
5.173798 7.26173 4.160989 82 57 48
5.247133 7.171268 4.089357 87 65 58
5.312639 7.078598 4.013469 80 56 47
5.374019 6.990165 3.940757 4 5 7
5.43697 6.913705 3.880465 86 77 75
5.495578 6.838969 3.82077 141 140 139
5.552944 6.769814 3.766351 144 143 140
5.605896 6.701504 3.711628 142 144 142
5.657054 6.637055 3.660311 147 149 147
5.706078 6.57559 3.61143 145 147 145
1.533822 7.773084 3.559308 96 98 102
1.617987 7.80808 3.613971 83 84 87
1.727943 7.803531 3.637603 89 90 90
1.874269 7.733188 3.607939 113 119 118
2.012951 7.670849 3.583941 121 128 127
2.149432 7.606678 3.557641 255 254 255
2.246302 7.623761 3.598507 212 215 213
4.010428 7.187418 3.632246 255 254 255
4.809576 7.633499 4.259441 76 52 45
4.905573 7.545018 4.199741 74 48 38
4.992004 7.44759 4.129105 82 54 46
5.076499 7.360464 4.067768 83 56 46
5.152001 7.267125 3.99824 36 18 13
5.222228 7.176048 3.92952 10 7 8
5.288803 7.089715 3.864384 130 128 127
5.355445 7.013296 3.808685 145 144 143
5.41757 6.938127 3.753028 145 147 145
5.475406 6.864417 3.697666 145 146 145
5.530033 6.793459 3.644105 147 147 144
5.584989 6.729362 3.597148 147 148 147
5.634429 6.66415 3.547732 148 149 148
5.682772 6.603083 3.501975 151 152 151
1.468425 7.834259 3.442158 121 127 136
1.568189 7.841084 3.473059 115 120 125
1.660703 7.86246 3.515268 100 103 107
1.741096 7.909602 3.577683 88 89 91
1.833354 7.941258 3.62909 79 80 81
1.965394 7.897902 3.622789 108 115 114
2.094168 7.857737 3.618552 106 113 112
2.364278 7.73363 3.573755 255 254 255
4.140889 7.309919 3.632792 255 254 255
4.702633 7.727068 4.147967 86 61 54
4.802382 7.642708 4.096714 87 65 57
4.897186 7.559316 4.045107 87 58 46
4.985189 7.472274 3.988522 21 15 20
5.061833 7.372574 3.917717 47 41 39
5.134507 7.278526 3.851018 146 145 144
5.204092 7.190699 3.789158 145 146 145
5.271356 7.109283 3.732498 149 150 149
5.335177 7.031297 3.678074 150 151 149
5.39696 6.958374 3.627705 148 150 148
5.456319 6.889158 3.580074 149 150 149
5.511143 6.820238 3.531585 150 152 150
5.565521 6.756923 3.488035 154 155 154
5.61441 6.692263 3.441912 160 164 161
5.661304 6.630589 3.397984 163 166 164
1.57853 7.947984 3.416138 128 134 143
1.684001 7.948569 3.442193 119 122 130
1.777754 7.972724 3.485537 109 111 118
1.860327 8.023608 3.549 95 95 99
1.943048 8.082486 3.619325 83 83 84
2.056003 8.083277 3.647368 101 105 101
2.178984 8.062102 3.659081 79 74 72
4.276788 7.440049 3.636104 255 254 255
4.596983 7.819782 4.037983 84 62 55
4.706585 7.762025 4.015214 87 57 49
4.810809 7.697527 3.985384 6 6 11
4.892838 7.582781 3.907264 116 112 111
4.968503 7.470882 3.830031 152 151 148
5.044193 7.375727 3.767105 153 152 149
5.118323 7.290246 3.712064 151 152 151
5.187551 7.206029 3.656914 155 156 155
5.254536 7.127699 3.606247 154 156 154
5.318659 7.053188 3.558149 152 153 152
5.379461 6.981177 3.511382 154 155 154
5.438577 6.913734 3.468107 154 156 154
5.492953 6.845932 3.423377 161 162 160
5.54569 6.781991 3.381547 163 164 163
5.59468 6.718768 3.339423 170 174 172
5.6404 6.65679 3.29757 178 183 180
1.563259 8.100775 3.388899 170 193 201
1.685733 8.073972 3.396198 133 144 152
1.797544 8.066452 3.416586 122 127 136
1.892823 8.093763 3.461262 116 118 126
1.973402 8.158666 3.532893 100 103 107
2.045406 8.25473 3.627727 89 89 92
4.709447 7.792489 3.884299 151 154 154
4.794189 7.675331 3.809505 153 154 153
4.877294 7.574051 3.747179 151 150 149
4.95738 7.48111 3.690891 155 156 154
5.03271 7.390615 3.635455 155 157 155
5.105649 7.307138 3.585137 155 156 155
5.173123 7.223287 3.533222 155 156 155
5.23987 7.147873 3.487966 153 156 154
5.303719 7.07569 3.444639 153 156 154
5.364398 7.005807 3.402425 154 158 156
5.422411 6.938673 3.361805 158 160 158
5.476141 6.871621 3.320237 166 169 167
5.528104 6.808097 3.281108 178 181 179
5.576178 6.744932 3.241347 191 195 191
5.620666 6.682512 3.201341 198 201 197
1.806126 8.18288 3.36229 143 155 163
1.915107 8.184015 3.388401 130 137 146
2.007457 8.225002 3.441256 122 125 133
2.087987 8.302626 3.519497 105 107 111
2.153594 8.433566 3.635214 95 96 98
4.511616 7.994336 3.84414 149 152 152
4.602734 7.862584 3.764098 154 157 157
4.693338 7.756918 3.703964 155 158 158
4.78084 7.661288 3.650814 156 157 157
4.864098 7.569815 3.599874 156 158 156
4.943207 7.481804 3.550631 158 159 158
5.018296 7.396855 3.502807 156 157 156
5.090317 7.316433 3.457748 155 156 155
5.158291 7.237756 3.41309 156 159 157
5.224212 7.164264 3.371938 155 158 156
5.286939 7.093098 3.331833 156 159 157
5.347904 7.026254 3.294635 161 164 162
5.404912 6.959713 3.256756 164 168 166
5.458586 6.894406 3.219051 182 185 183
5.510948 6.832983 3.184023 193 196 192
5.558169 6.769946 3.146567 198 202 198
5.601966 6.707721 3.108942 203 207 202
2.024313 8.329802 3.375838 134 144 154
2.112904 8.391384 3.440742 124 130 139
2.185818 8.507629 3.541881 116 120 126
4.202875 8.39795 3.919257 132 134 135
4.307484 8.222422 3.815208 147 150 150
4.40875 8.084905 3.738069 150 153 153
4.507176 7.971159 3.677588 153 156 156
4.598643 7.85608 3.614559 155 158 158
4.686627 7.752436 3.559065 156 159 159
4.771791 7.658926 3.510306 160 163 163
4.85339 7.570751 3.464623 160 163 163
4.931239 7.486207 3.420733 158 162 159
5.005014 7.403788 3.377465 158 161 159
5.076802 7.327663 3.338329 159 162 160
5.14327 7.249906 3.2968 158 161 159
5.208444 7.178506 3.259604 159 162 160
5.271314 7.11058 3.224413 160 164 162
5.330438 7.043213 3.188781 163 166 164
5.386304 6.977147 3.153358 176 181 178
5.440545 6.914654 3.120167 190 196 193
5.493311 6.855457 3.08904 199 202 198
5.539634 6.792539 3.053744 203 207 203
5.584817 6.73319 3.020787 204 208 203
4.091339 8.456909 3.780142 148 153 152
4.202447 8.309998 3.703433 150 155 154
4.308715 8.185442 3.641077 155 160 160
4.409885 8.07103 3.584587 153 158 158
4.504838 7.957653 3.527431 157 163 162
4.594997 7.850802 3.473716 162 165 165
4.682196 7.754884 3.426887 167 170 170
4.765853 7.664917 3.383378 168 171 171
4.845416 7.577841 3.340955 169 174 174
4.921624 7.494966 3.300686 166 171 170
4.994031 7.414362 3.261141 165 168 168
5.062981 7.336402 3.222652 162 165 163
5.128695 7.261087 3.185271 162 165 163
5.193638 7.192694 3.152493 166 169 167
5.254352 7.123847 3.118465 166 170 167
5.312638 7.057732 3.085782 171 177 174
5.368006 6.993189 3.053537 187 193 190
5.421152 6.931081 3.022479 195 201 198
5.473729 6.87345 2.994383 202 206 203
5.521409 6.813844 2.963837 205 209 204
5.566037 6.754975 2.933122 207 210 206
3.986263 8.563879 3.678174 153 159 158
4.10149 8.424193 3.611879 156 163 162
4.210509 8.295789 3.551611 157 162 162
4.314224 8.178288 3.497321 157 162 161
4.412026 8.063531 3.44354 159 164 164
4.505032 7.955712 3.393253 165 170 169
4.593704 7.854326 3.346231 172 177 176
4.678328 7.758441 3.301926 184 189 186
4.759181 7.667468 3.260014 190 196 193
4.836379 7.58054 3.219952 190 196 193
4.910853 7.499207 3.182958 187 192 191
4.981461 7.419521 3.146198 178 183 182
5.050237 7.345763 3.112917 169 175 172
5.115197 7.272705 3.079266 168 172 170
5.178606 7.204679 3.048566 169 172 170
5.238509 7.137299 3.017528 171 174 174
5.295528 7.07159 2.986955 183 188 186
5.350248 7.008288 2.957456 192 197 195
5.401762 6.945697 2.927724 198 204 201
5.453451 6.888661 2.901664 203 206 204
5.501457 6.831122 2.874474 206 210 208
5.546822 6.774567 2.847352 206 210 208
3.75686 8.879757 3.679852 153 162 162
3.88316 8.70677 3.599576 158 165 165
4.001678 8.555469 3.53108 160 167 166
4.1133 8.416279 3.46862 160 167 168
4.219445 8.292374 3.414465 162 168 169
4.319114 8.169394 3.359503 162 168 169
4.414898 8.06082 3.31264 166 174 172
4.505613 7.955651 3.266805 184 191 190
4.592298 7.856998 3.224151 197 202 201
4.674731 7.762163 3.182956 199 205 203
4.754083 7.67389 3.145172 203 210 207
4.82968 7.588617 3.108446 203 208 206
4.902937 7.50945 3.075003 199 204 204
4.972081 7.43079 3.040999 193 198 198
5.038846 7.356527 3.009212 188 195 194
5.102066 7.283427 2.97739 182 187 186
5.164751 7.217249 2.949744 176 181 180
5.224093 7.15165 2.921745 180 185 184
5.28089 7.087979 2.894396 191 196 196
5.334066 7.02423 2.866227 197 202 201
5.385722 6.963734 2.83975 200 205 205
5.434931 6.904699 2.813658 206 209 207
5.481626 6.846875 2.787778 207 210 210
5.525416 6.789627 2.761637 207 210 210
3.779009 8.864714 3.527871 166 175 174
3.901666 8.702794 3.45847 169 178 178
4.016528 8.550138 3.392876 169 176 176
4.125655 8.41972 3.339139 168 174 175
4.228588 8.293905 3.286809 168 175 175
4.326147 8.175668 3.237803 170 177 177
4.419029 8.065486 3.192548 187 193 194
4.508371 7.9655 3.152539 198 205 204
4.592794 7.866827 3.11227 204 211 209
4.674285 7.776267 3.076153 207 214 212
4.750974 7.685656 3.039 207 214 212
4.825036 7.601474 3.005072 208 213 211
4.895967 7.520917 2.972617 206 211 210
4.962966 7.441308 2.939897 201 206 205
5.028005 7.367036 2.909899 198 205 204
5.091077 7.297105 2.882039 193 201 199
5.152596 7.231594 2.856448 190 197 196
5.21171 7.168193 2.831594 193 200 198
5.267561 7.105098 2.806235 198 203 202
5.320602 7.043079 2.780922 201 206 205
5.370797 6.981973 2.755548 204 207 207
5.420064 6.924571 2.732155 207 210 210
5.465244 6.865897 2.70716 207 210 210
5.508609 6.809261 2.682982 207 210 210
3.800214 8.859041 3.388412 183 194 194
3.919049 8.69359 3.320837 183 194 195
4.030777 8.546364 3.261933 175 186 187
4.136967 8.418219 3.212501 175 183 185
4.238104 8.301133 3.16818 175 183 185
4.33348 8.185326 3.123387 185 193 195
4.424426 8.077436 3.082084 199 206 204
4.511546 7.977326 3.044321 206 213 211
4.594079 7.879462 3.006865 208 215 213
4.672835 7.786213 2.971199 209 216 214
4.74783 7.696456 2.936702 210 215 214
4.820293 7.613017 2.905197 211 216 213
4.888952 7.531068 2.873739 207 214 213
4.954932 7.453176 2.843987 205 210 210
5.019036 7.380427 2.816709 203 209 208
5.080325 7.309869 2.79007 200 207 206
5.141048 7.245698 2.766865 202 209 207
5.19895 7.182578 2.743666 203 210 209
5.254039 7.120416 2.720422 203 211 209
5.305573 7.057862 2.696229 205 210 209
5.355039 6.99742 2.672786 206 209 209
5.403307 6.940155 2.650863 208 211 211
5.447958 6.882163 2.627794 207 212 211
5.490386 6.825519 2.605017 208 213 212
3.82022 8.844641 3.250572 199 212 213
3.935711 8.686827 3.190831 198 209 210
4.044954 8.549876 3.140806 191 202 203
4.148359 8.422173 3.09447 185 195 197
4.247521 8.31018 3.055544 184 195 196
4.341841 8.202568 3.017946 197 206 207
4.43163 8.099312 2.981727 203 212 212
4.51656 7.997495 2.945285 209 216 215
4.596418 7.896007 2.907993 210 218 216
4.672846 7.800762 2.873294 210 217 216
4.745671 7.709613 2.840022 210 218 216
4.814644 7.620912 2.807263 211 218 217
4.881242 7.538193 2.777172 209 216 215
4.945445 7.460183 2.749075 207 215 213
5.008376 7.388605 2.724107 206 213 213
5.069754 7.321665 2.701265 204 211 211
5.129618 7.258657 2.680187 205 212 211
5.18805 7.199108 2.660641 207 214 212
5.241246 7.135623 2.637967 207 215 213
5.291027 7.072008 2.614536 208 213 213
5.337945 7.009236 2.590971 208 213 212
5.386732 6.954549 2.572036 207 212 211
5.433376 6.900951 2.553243 208 213 213
5.473878 6.84273 2.530777 208 214 213
1.357204 5.002831 4.65993 120 117 109
1.455573 5.025575 4.666073 141 137 129
1.558601 5.047009 4.66397 139 135 128
1.66128 5.068294 4.6616 138 134 126
1.763656 5.089405 4.658844 142 138 132
2.164183 5.174495 4.656981 145 140 131
2.263496 5.195473 4.656085 146 141 132
5.013746 5.810131 4.751855 138 126 119
5.09858 5.823381 4.734406 134 124 115
5.179991 5.834216 4.710939 135 125 115
5.257825 5.842784 4.682106 120 111 102
1.26813 5.05153 4.556186 98 92 85
1.318042 5.086674 4.636755 124 120 114
1.4076 5.112475 4.659127 139 135 129
1.509146 5.134996 4.662412 143 139 133
1.612946 5.156645 4.661268 141 137 131
1.719769 5.176934 4.653564 139 135 129
1.829648 5.195531 4.638185 125 121 115
1.927818 5.218366 4.644845 108 102 95
2.021739 5.243168 4.660908 145 141 132
2.122411 5.264873 4.662122 148 144 137
2.22374 5.285969 4.660885 145 140 133
2.324203 5.30723 4.660786 142 137 130
2.423639 5.328848 4.662573 145 139 132
2.523934 5.34955 4.660759 142 136 127
2.921466 5.304846 4.237844 173 168 159
3.01188 5.319422 4.222809 175 169 160
3.097416 5.339147 4.22805 179 173 164
3.499087 5.563835 4.685776 171 165 152
3.595648 5.582142 4.678705 183 178 167
3.691498 5.600438 4.67209 183 175 165
3.786569 5.616862 4.659874 183 176 165
4.924217 5.881874 4.738317 150 140 133
5.011358 5.895467 4.722336 143 133 125
5.096408 5.907772 4.703575 142 131 122
5.182792 5.922391 4.69148 129 120 109
5.266316 5.93493 4.674553 100 90 82
1.234232 5.133527 4.52351 96 92 85
1.280183 5.171714 4.60977 126 122 116
1.365155 5.19982 4.64078 138 136 130
1.464429 5.223752 4.650096 141 137 132
1.571051 5.245034 4.646729 148 144 138
1.678371 5.265676 4.640987 143 139 134
1.790837 5.283636 4.62387 149 144 136
1.881307 5.31098 4.649089 121 115 108
1.977791 5.335976 4.663386 151 147 139
2.080323 5.357918 4.664616 148 144 137
2.183756 5.379049 4.662821 149 146 138
2.28614 5.400448 4.662503 147 143 135
2.388215 5.421693 4.661911 146 140 133
2.490842 5.442064 4.65833 138 133 126
2.797141 5.379166 4.273719 89 86 82
2.899729 5.383805 4.222605 176 170 161
2.988265 5.402103 4.221703 171 164 155
3.075368 5.4219 4.226244 178 170 162
3.155177 5.454446 4.273953 119 111 103
3.196587 5.574243 4.609797 141 132 120
3.286315 5.614305 4.673929 157 150 137
3.383773 5.63823 4.684373 168 161 148
3.482386 5.657238 4.679223 175 168 156
3.5804 5.675843 4.673229 171 164 154
3.677739 5.694405 4.667539 176 169 159
3.774315 5.710164 4.653855 167 158 148
3.869976 5.726882 4.643656 181 172 161
3.9653 5.746281 4.641773 175 167 159
4.059779 5.764036 4.635456 180 172 164
4.153772 5.782208 4.630712 179 172 163
4.247126 5.800118 4.625578 184 178 171
4.323376 5.502512 3.67753 255 254 255
4.392586 5.51711 3.677716 255 254 255
4.467309 5.540081 3.69971 255 254 255
4.915033 5.961394 4.689025 161 152 144
5.007974 5.981071 4.689497 151 142 134
5.100764 6.000865 4.690416 139 129 120
5.190101 6.017219 4.683133 99 89 84
5.27654 6.031178 4.670444 128 117 106
1.203981 5.215621 4.484241 99 94 89
1.242903 5.258042 4.580227 134 133 128
1.327237 5.287399 4.613248 144 142 138
1.424863 5.312615 4.626954 151 149 143
1.531434 5.334435 4.625959 149 147 141
1.640737 5.354765 4.619202 146 144 138
1.747025 5.375972 4.616656 153 149 141
1.834306 5.406417 4.651006 143 140 132
1.935254 5.430497 4.659601 156 154 147
2.039918 5.452416 4.659992 153 149 142
2.143766 5.474535 4.661413 149 143 136
2.248121 5.495992 4.660691 151 145 138
2.352822 5.516743 4.657792 151 146 137
2.459646 5.535071 4.646882 130 124 115
2.782182 5.45184 4.226407 169 164 155
2.874788 5.467927 4.217502 175 170 160
2.963535 5.487997 4.221982 177 169 161
3.051556 5.509027 4.229572 181 173 165
3.170157 5.67954 4.637419 136 127 115
3.265945 5.710532 4.668348 157 150 139
3.365452 5.732915 4.673036 159 152 139
3.465358 5.752567 4.669854 169 162 150
3.564751 5.77184 4.665909 168 161 148
3.663564 5.79099 4.661961 160 153 142
3.761731 5.807687 4.651528 132 125 112
3.859193 5.826249 4.646717 159 150 140
3.956525 5.847579 4.649727 170 163 152
4.052647 5.864579 4.641331 168 160 152
4.148208 5.882192 4.634977 173 166 157
4.243601 5.901097 4.632332 172 164 156
4.338894 5.920836 4.632077 166 158 150
4.385379 5.57659 3.642277 255 254 255
4.457732 5.595946 3.654303 255 254 255
4.53049 5.615463 3.666545 255 254 255
5.110705 6.102857 4.69196 109 99 91
5.200997 6.118534 4.683257 134 122 113
5.291008 6.134573 4.67573 118 106 98
1.304429 5.370725 4.560936 141 139 134
1.384681 5.403396 4.602812 152 152 145
1.490998 5.425939 4.604454 153 154 147
1.598723 5.447594 4.603039 141 141 136
1.69902 5.472641 4.614407 133 129 121
1.787756 5.504161 4.648757 159 158 149
1.891379 5.528122 4.655522 162 160 156
1.997737 5.550302 4.656202 159 155 150
2.102947 5.572933 4.658666 160 156 148
2.208634 5.594932 4.659234 157 153 146
2.314337 5.616518 4.658719 155 152 144
2.424757 5.633305 4.643227 130 125 116
2.647913 5.534669 4.267804 85 83 78
2.75769 5.535585 4.211456 170 165 155
2.848158 5.555853 4.215671 172 166 157
2.937957 5.576873 4.222197 173 168 159
3.020562 5.609788 4.263451 107 100 93
3.049601 5.750345 4.61278 138 131 120
3.144776 5.784633 4.650874 151 143 133
3.24509 5.809345 4.661359 157 150 139
3.346368 5.831177 4.663853 158 151 139
3.447409 5.85284 4.666034 156 149 137
3.54844 5.872291 4.662478 159 152 140
3.648934 5.890835 4.656858 144 137 124
3.748728 5.908225 4.648613 172 163 151
3.848387 5.933465 4.660819 164 157 146
3.947353 5.952389 4.657001 163 156 145
4.045526 5.970178 4.65066 166 158 148
4.143043 5.988009 4.644779 168 160 152
4.240515 6.007603 4.643499 161 151 143
4.336082 6.023343 4.633235 131 123 117
4.4254 6.026893 4.594666 162 154 146
4.51349 6.032187 4.561285 146 134 127
4.527318 5.681314 3.643071 255 254 255
4.595631 5.693558 3.638309 255 254 255
4.672074 5.717216 3.658829 255 254 255
5.301161 6.236231 4.669586 121 109 102
1.556778 5.542337 4.584356 154 153 147
1.65013 5.572262 4.61065 147 145 139
1.741242 5.60435 4.643272 169 169 162
1.846182 5.628947 4.65098 170 168 162
1.952924 5.652325 4.65485 169 166 160
2.060306 5.675027 4.656776 163 159 154
2.167906 5.697224 4.657372 160 157 149
2.276175 5.718406 4.655183 145 142 134
2.624715 5.618107 4.241011 161 158 148
2.726595 5.628587 4.216113 168 165 153
2.819342 5.648487 4.21848 167 162 151
2.908723 5.673041 4.233753 172 167 156
3.017369 5.866264 4.647099 139 132 122
3.119183 5.89213 4.659414 152 146 136
3.222754 5.913681 4.660435 158 151 141
3.325697 5.936194 4.664091 159 151 141
3.428704 5.957268 4.664238 157 150 137
3.531364 5.977866 4.663405 143 134 122
3.633724 5.995842 4.656382 159 150 138
3.735358 6.019758 4.664074 149 141 131
3.836945 6.042794 4.669662 159 151 141
3.937942 6.062123 4.666582 162 155 144
4.038254 6.080679 4.661972 164 157 146
4.137637 6.097934 4.654678 158 149 139
4.23674 6.116622 4.650984 148 139 129
4.328816 6.117468 4.60764 158 149 139
4.415327 6.110788 4.54885 145 134 125
4.638229 6.211025 4.681187 153 143 136
4.740456 6.237833 4.695571 159 150 142
4.597161 5.766647 3.627633 255 254 255
4.664547 5.776845 3.619056 255 254 255
4.733985 5.790548 3.617941 255 254 255
0.9336269 5.537787 4.59966 127 122 119
1.701691 5.702628 4.621783 177 177 172
1.806524 5.728492 4.632392 178 178 173
1.910691 5.754992 4.644735 177 175 171
2.017898 5.779384 4.650943 173 171 165
2.126226 5.80273 4.654281 171 167 161
2.238562 5.822082 4.646788 143 141 133
2.595113 5.709844 4.23139 174 172 162
2.693082 5.726721 4.224856 169 167 156
2.787343 5.747538 4.228893 167 163 153
2.874108 5.779833 4.262228 107 102 92
2.886343 5.948816 4.637729 144 138 127
2.986408 5.982242 4.667557 151 145 134
3.093625 6.001344 4.661832 154 149 137
3.199097 6.0233 4.663335 153 147 136
3.304169 6.045414 4.665378 158 153 141
3.40904 6.066915 4.66613 150 142 132
3.513806 6.086208 4.66195 117 110 97
3.617767 6.107899 4.663543 139 132 119
3.721398 6.136216 4.680229 149 142 131
3.824933 6.154748 4.674895 157 150 138
3.927887 6.174142 4.671766 156 149 137
4.030066 6.192298 4.666198 162 153 141
4.131637 6.21072 4.661509 151 140 129
4.230312 6.221197 4.64022 150 139 127
4.322481 6.216736 4.588206 136 125 115
4.544845 6.313506 4.705215 144 134 125
4.646785 6.335583 4.708601 144 134 126
4.748473 6.357548 4.711846 149 140 130
4.854445 6.387177 4.730427 134 125 117
4.739968 5.868993 3.613994 255 254 255
4.798915 5.867857 3.584599 255 254 255
0.8584337 5.647538 4.608929 134 131 127
0.9669194 5.673646 4.61832 142 140 134
1.081165 5.697093 4.619673 153 151 144
1.198935 5.718482 4.615202 155 153 149
1.759911 5.834885 4.624532 189 189 184
1.868009 5.860239 4.632495 187 185 181
1.972847 5.888279 4.647499 187 185 181
2.0812 5.913645 4.65538 172 170 165
2.560419 5.809308 4.23354 174 173 165
2.658053 5.829141 4.234265 169 168 157
2.750775 5.85549 4.250801 171 169 159
2.849043 6.073778 4.669848 144 141 129
2.95829 6.094474 4.667502 154 151 139
3.066961 6.115043 4.665133 153 150 138
3.174482 6.137267 4.666738 156 151 140
3.281616 6.15957 4.668673 157 152 140
3.388236 6.182768 4.672714 139 132 121
3.495958 6.195822 4.654891 160 153 141
3.600965 6.22744 4.677369 152 145 135
3.706854 6.252603 4.68586 154 147 136
3.812449 6.270971 4.680143 156 149 137
3.91731 6.289263 4.674574 152 143 131
4.021541 6.308021 4.670256 151 140 128
4.124624 6.324364 4.661325 138 129 118
4.223868 6.329532 4.63044 133 122 111
4.438253 6.398948 4.686591 144 134 124
4.543164 6.424497 4.696307 145 135 126
4.646739 6.446935 4.700026 147 137 127
4.750997 6.471084 4.707065 129 119 109
4.855618 6.495936 4.715435 148 136 125
4.95933 6.519207 4.72085 133 122 113
5.06396 6.544064 4.729228 136 124 116
4.803848 5.944862 3.574886 255 254 255
4.867461 5.949855 3.558634 255 254 255
0.7796175 5.762267 4.618997 137 135 131
0.87955 5.794167 4.643079 142 140 134
1.00109 5.815918 4.638672 151 149 145
1.123656 5.836546 4.631645 152 150 146
1.249489 5.854594 4.618244 146 144 140
2.146471 5.54161 3.649693 255 254 255
2.408906 5.909769 4.275105 188 190 182
2.524035 5.913065 4.236718 179 181 171
2.621602 5.935884 4.243771 176 176 167
2.706388 5.977929 4.293815 112 108 100
2.712711 6.157519 4.646358 143 139 127
2.81693 6.191712 4.673304 155 152 141
2.927617 6.214232 4.674649 153 152 141
3.03917 6.233408 4.669046 157 154 142
3.149168 6.254856 4.668541 158 155 143
3.258421 6.277233 4.670164 147 141 130
3.367996 6.295977 4.66448 163 156 143
3.476345 6.317997 4.665748 147 141 130
3.58356 6.350334 4.687856 159 152 142
3.691796 6.369522 4.683571 158 150 140
3.799353 6.388798 4.679725 156 149 138
3.906324 6.408709 4.677362 145 136 124
4.012671 6.428144 4.674302 113 103 92
4.117504 6.442883 4.662551 127 117 107
4.327412 6.483459 4.660891 141 129 120
4.435624 6.515093 4.681218 143 134 123
4.54103 6.537936 4.685262 152 140 131
4.646231 6.56073 4.689291 130 119 110
4.751226 6.583477 4.693305 144 133 122
4.857116 6.608266 4.701007 129 118 109
4.961804 6.630941 4.704998 129 118 109
5.068473 6.657152 4.715206 132 121 112
5.17601 6.684515 4.727355 131 119 110
0.9305532 5.933504 4.640342 144 142 138
1.056381 5.953774 4.632445 152 149 145
1.183937 5.972188 4.62048 160 156 150
1.290434 6.002987 4.639115 157 153 147
2.123417 5.614604 3.616977 255 254 255
2.214453 5.627077 3.607193 255 254 255
2.287941 5.653262 3.629209 255 254 255
2.375694 6.010424 4.260335 193 195 188
2.485322 6.022104 4.242356 187 189 182
2.577051 6.056453 4.272925 185 187 179
2.671626 6.288991 4.67029 154 153 142
2.783898 6.313637 4.675418 161 160 150
2.896358 6.337414 4.678864 158 157 146
3.010084 6.357003 4.674081 159 156 146
3.122743 6.377426 4.671231 155 152 140
3.234369 6.399287 4.671425 117 112 103
3.346944 6.413681 4.657416 140 135 125
3.455458 6.448626 4.683018 156 151 142
3.565817 6.473135 4.688583 153 148 139
3.676172 6.491521 4.682786 151 146 135
3.78577 6.511029 4.679346 149 142 130
3.894924 6.532967 4.680576 119 111 99
4.003285 6.551766 4.676267 128 120 111
4.110124 6.565934 4.663915 102 86 80
4.218606 6.591927 4.672915 139 130 120
4.325998 6.6138 4.67466 144 133 124
4.431941 6.632209 4.670503 150 139 128
4.539666 6.657115 4.677759 135 124 113
4.64662 6.680236 4.681982 144 133 121
4.75337 6.70331 4.686188 127 115 106
4.858829 6.724164 4.686744 133 122 113
4.964896 6.746803 4.690391 127 116 107
5.07079 6.769494 4.694199 126 114 105
5.177986 6.794589 4.701995 130 119 110
5.285759 6.82056 4.71121 101 89 82
0.990561 6.073271 4.627535 143 140 136
1.201479 6.141665 4.676068 152 150 144
1.329825 6.160879 4.666497 171 168 164
1.449682 6.185469 4.669162 187 185 179
2.347353 5.748373 3.604856 255 254 255
2.413056 5.785503 3.647593 255 254 255
2.446091 6.134304 4.245243 195 200 191
2.522314 6.387022 4.660703 171 170 159
2.632139 6.420573 4.682375 168 169 160
2.747871 6.443867 4.684163 167 165 155
2.864075 6.465043 4.682096 165 163 153
2.981311 6.481555 4.671543 162 160 151
3.096512 6.5008 4.666442 142 137 125
3.211717 6.516639 4.655396 165 160 149
3.323516 6.544109 4.665792 155 152 142
3.435018 6.574796 4.681905 156 151 142
3.547531 6.598939 4.686256 155 150 141
3.659908 6.61992 4.685132 149 144 135
3.771714 6.639655 4.682025 135 126 116
3.882882 6.659549 4.679415 145 136 124
3.993438 6.679429 4.67698 126 118 110
4.103403 6.699301 4.674733 139 131 121
4.213159 6.720852 4.675488 142 133 121
4.321105 6.737009 4.667432 145 136 124
4.43024 6.759876 4.670692 138 126 115
4.539359 6.78342 4.675137 137 125 115
4.648274 6.806917 4.679566 125 113 104
4.755987 6.828072 4.680315 132 120 111
4.861367 6.845098 4.674639 128 116 105
4.966796 6.863555 4.671446 126 115 103
5.071805 6.882257 4.668821 127 116 105
5.175002 6.898779 4.663 108 96 87
5.275258 6.911696 4.651875 89 75 71
5.373419 6.922843 4.638362 95 87 83
1.130093 6.272693 4.681442 155 153 146
1.26386 6.289975 4.668108 158 156 151
1.394931 6.307984 4.656812 165 163 157
1.528893 6.322169 4.638328 177 173 167
1.662771 6.33449 4.616807 189 187 181
2.48154 5.876226 3.608198 255 254 255
2.561192 5.901975 3.625664 255 254 255
2.482913 6.516249 4.659636 185 185 176
2.591914 6.556223 4.691325 180 180 171
2.710565 6.579204 4.692074 176 177 168
2.829947 6.599178 4.687653 170 171 162
2.950785 6.612689 4.672156 156 155 144
3.070429 6.62499 4.655044 155 152 142
3.18724 6.642213 4.646904 154 150 141
3.3012 6.668979 4.655337 156 152 144
3.414629 6.699703 4.670442 152 148 139
3.528725 6.727498 4.680522 148 143 134
3.643073 6.751097 4.683631 133 125 116
3.757088 6.773266 4.684493 138 131 120
3.870434 6.79178 4.679554 129 122 110
3.983326 6.813142 4.67944 130 120 112
4.095409 6.8324 4.676121 143 134 122
4.206865 6.851798 4.673226 147 138 126
4.317538 6.870531 4.669483 142 133 121
4.42928 6.89524 4.675227 125 116 105
4.539692 6.916331 4.675442 126 115 104
4.650409 6.939385 4.678785 129 118 109
4.758976 6.957853 4.675263 130 119 108
4.865315 6.972754 4.666576 124 113 102
4.969257 6.984548 4.653527 125 114 103
5.071812 6.995763 4.639964 109 98 87
5.170683 7.002413 4.620044 89 77 70
5.2674 7.0078 4.598719 94 83 80
1.056511 6.408839 4.685644 149 147 141
1.192645 6.426461 4.673469 156 152 146
1.333667 6.438577 4.651344 152 148 142
1.477049 6.446375 4.621842 162 158 151
1.620399 6.451312 4.587917 160 157 149
2.649086 5.967742 3.540228 255 254 255
2.68072 6.700864 4.667103 180 181 172
2.796124 6.734727 4.686108 173 174 165
2.922444 6.739337 4.656615 139 136 128
3.043951 6.751722 4.640566 156 155 146
3.161234 6.774971 4.642578 163 159 152
3.277328 6.80231 4.65127 157 156 147
3.393306 6.830613 4.661493 152 148 140
3.509366 6.859228 4.672174 146 140 131
3.625619 6.886471 4.680675 120 112 103
3.741852 6.910864 4.684763 123 118 109
3.857649 6.932113 4.684107 96 73 72
3.972896 6.953255 4.683444 147 140 129
4.087277 6.972102 4.679473 147 140 129
4.201336 6.993041 4.678841 153 144 132
4.314393 7.011878 4.675244 109 100 88
4.426754 7.030636 4.671723 129 118 108
4.540223 7.05503 4.676615 134 122 111
4.652957 7.07788 4.679327 129 118 106
4.763454 7.095817 4.675075 123 112 101
4.869853 7.105829 4.659731 120 109 97
4.970962 7.107249 4.632607 106 96 82
5.070881 7.109983 4.607864 83 71 63
5.16651 7.107955 4.576987 101 91 84
5.257412 7.101211 4.540171 72 55 52
1.124607 6.563927 4.669714 146 142 136
1.271537 6.572959 4.643301 150 147 139
1.422116 6.575944 4.607058 157 153 147
1.580685 6.567437 4.551849 145 139 132
1.994729 6.42259 4.228313 182 182 175
2.0993 6.452373 4.243676 184 184 175
2.865366 6.137964 3.577181 255 254 255
2.939757 6.183721 3.624047 255 254 255
3.01641 6.883284 4.626648 171 169 162
3.137065 6.900951 4.61995 167 165 157
3.254176 6.932085 4.633907 162 160 152
3.371649 6.963121 4.647624 155 151 144
3.489255 6.996319 4.664466 127 121 114
3.607625 7.02403 4.673077 125 119 111
3.725995 7.05174 4.681686 76 41 42
3.844245 7.07687 4.686554 141 136 126
3.961757 7.096362 4.683374 145 139 130
4.078712 7.116973 4.681981 154 146 136
4.194926 7.136734 4.679542 108 97 82
4.309764 7.153117 4.672537 127 117 108
4.425617 7.17692 4.676109 134 125 115
4.541512 7.201805 4.681255 131 122 112
4.655659 7.22206 4.680098 128 117 106
4.7671 7.236531 4.67121 125 115 106
4.870854 7.23468 4.640521 112 101 88
4.970444 7.228298 4.604328 89 78 71
5.068564 7.223826 4.571324 108 98 91
5.161435 7.213485 4.531153 65 51 44
5.233962 7.171095 4.449587 75 49 41
5.290274 7.109105 4.343726 77 43 34
1.211693 6.708319 4.627942 139 135 129
1.367865 6.707529 4.58768 136 132 126
1.831085 6.527095 4.22212 169 168 160
1.950086 6.543003 4.214258 173 171 163
2.047693 6.584608 4.247278 176 177 167
2.105866 6.882702 4.644685 158 157 146
2.228015 6.913535 4.656662 173 171 162
2.924706 6.25943 3.577882 255 254 255
3.010513 6.284517 3.591033 255 254 255
3.23004 7.067299 4.617857 164 162 155
3.348974 7.102158 4.636206 152 148 140
3.469095 7.131086 4.64606 146 141 134
3.588969 7.16658 4.66505 90 64 64
3.709515 7.197331 4.677317 142 137 128
3.830016 7.221248 4.680148 148 142 133
3.949851 7.241526 4.678119 152 147 138
4.068857 7.260457 4.674435 107 100 89
4.187287 7.280468 4.672388 130 123 112
4.305194 7.301073 4.671292 135 128 118
4.423889 7.327283 4.677748 133 124 114
4.541287 7.349357 4.67881 128 118 108
4.657094 7.367841 4.675312 127 117 107
4.767216 7.37236 4.653937 110 99 90
4.86833 7.35832 4.609172 88 78 70
4.968442 7.348872 4.571002 113 101 94
5.064079 7.335328 4.528297 77 67 61
5.140799 7.28949 4.445703 76 52 47
5.197445 7.215207 4.328827 72 37 28
5.255427 7.155035 4.231122 79 51 42
1.156491 6.842172 4.602213 127 125 118
1.321227 6.834118 4.553262 108 106 100
1.78192 6.652779 4.208781 163 159 151
1.892355 6.681677 4.220795 162 160 152
1.987786 6.73071 4.262624 174 173 164
2.046865 7.045039 4.659696 153 152 143
2.179542 7.064211 4.653809 162 160 152
2.310443 7.084582 4.649903 168 166 158
2.43665 7.112673 4.657181 172 170 161
3.447382 7.279538 4.639533 86 66 65
3.569618 7.314353 4.656526 151 147 139
3.692429 7.344172 4.666856 153 148 139
3.815171 7.368981 4.670654 156 152 142
3.937513 7.392779 4.673223 114 106 97
4.058929 7.411952 4.669964 136 129 119
4.180649 7.438024 4.675651 135 128 118
4.301676 7.461516 4.678127 132 125 114
4.422884 7.48747 4.683779 124 114 105
4.542514 7.508258 4.683047 133 124 114
4.657964 7.517211 4.667821 111 101 92
4.765953 7.508424 4.631147 85 75 72
4.865318 7.483734 4.575698 116 106 98
4.961167 7.459415 4.521554 67 58 52
5.041628 7.408542 4.436292 76 64 57
5.102232 7.327196 4.315831 79 50 40
5.162362 7.258814 4.212425 81 69 64
5.217764 7.192935 4.113392 84 58 52
1.579038 6.797127 4.24535 154 152 145
1.720793 6.794952 4.211917 159 156 148
1.831239 6.827838 4.228649 165 161 152
1.864149 7.171986 4.647251 135 133 125
1.997291 7.195983 4.648063 151 150 142
2.129951 7.219661 4.648585 158 156 150
2.26351 7.240323 4.645181 160 159 150
3.321834 6.589522 3.610575 255 254 255
3.408952 6.640979 3.655339 255 254 255
3.674824 7.489115 4.646893 165 161 155
3.799716 7.520164 4.658217 131 125 117
3.924637 7.549407 4.667304 147 142 131
4.049021 7.573515 4.670153 134 128 119
4.174048 7.604888 4.68185 137 130 121
4.298851 7.634105 4.690928 132 122 114
4.42283 7.659556 4.695526 126 117 108
4.542485 7.669111 4.681397 116 107 97
4.655737 7.661489 4.647408 85 77 71
4.759591 7.632946 4.589575 123 112 107
4.856001 7.594739 4.521403 65 56 52
4.931386 7.514693 4.406031 69 43 35
4.999371 7.434164 4.291666 80 59 49
5.06533 7.364522 4.19121 78 52 45
5.123409 7.291394 4.08815 77 51 45
5.183881 7.234688 4.004886 33 16 17
1.525807 6.931036 4.22649 159 157 151
1.658406 6.941917 4.212513 153 151 143
1.768285 6.979781 4.234731 160 158 150
1.809266 7.329703 4.63645 140 138 131
3.394873 6.72345 3.606579 255 254 255
3.48675 6.756934 3.627293 255 254 255
3.578548 6.80754 3.668084 255 254 255
3.911008 7.708332 4.656472 144 138 131
4.038945 7.744909 4.673543 134 128 121
4.167034 7.778807 4.687444 129 121 113
4.294582 7.8078 4.695706 117 110 102
4.417304 7.813753 4.677947 119 112 103
4.534884 7.805503 4.644584 86 78 73
4.643438 7.774237 4.586073 125 117 110
4.739866 7.717403 4.500051 67 59 54
4.819386 7.628332 4.379666 71 44 35
4.892626 7.543209 4.265172 86 64 55
4.963133 7.469249 4.164308 89 65 58
5.027702 7.396375 4.065914 73 41 34
5.085787 7.322894 3.968113 10 8 11
5.140222 7.254216 3.876678 109 107 102
1.451231 7.09231 4.235778 144 144 139
1.585238 7.105565 4.225411 153 154 147
3.566447 6.868283 3.591107 255 254 255
3.659725 6.925293 3.636945 255 254 255
3.755606 6.975776 3.675049 255 254 255
4.154866 7.922341 4.651279 120 116 110
4.280889 7.932177 4.638611 117 109 101
4.402949 7.929117 4.612366 84 78 73
4.516561 7.899342 4.558041 113 107 101
4.619531 7.844652 4.478045 78 66 59
4.707225 7.757549 4.36492 76 64 57
4.783746 7.659692 4.241946 70 41 32
4.858083 7.5782 4.13755 73 44 35
4.926285 7.498603 4.036408 82 52 43
4.992583 7.430021 3.947852 11 9 17
5.04291 7.3391 3.837483 140 139 136
5.090777 7.257452 3.73787 146 148 146
1.378613 7.255136 4.236972 147 147 142
1.51156 7.27382 4.233549 138 139 135
3.742402 7.057813 3.618659 255 254 255
3.839977 7.097785 3.643789 255 254 255
3.940408 7.157654 3.689368 255 254 255
4.374267 7.968904 4.468009 113 106 101
4.48491 7.931842 4.409774 72 62 59
4.582173 7.8592 4.316409 81 54 46
4.669671 7.775527 4.213128 78 56 48
4.744317 7.673937 4.093218 78 44 33
4.822826 7.60675 4.008855 75 44 34
4.898852 7.548294 3.934111 12 10 12
4.956152 7.456693 3.82773 143 142 142
5.008326 7.369359 3.726731 146 147 146
5.058736 7.292284 3.636838 149 150 149
4.024544 7.248397 3.622453 255 254 255
4.127301 7.30186 3.659293 255 254 255
4.538473 7.839652 4.130077 72 50 43
4.628026 7.771789 4.047896 80 60 52
4.710692 7.700856 3.963758 77 46 38
4.804134 7.680019 3.927907 44 37 36
4.867528 7.584658 3.82248 146 147 146
4.925986 7.495068 3.723611 144 145 144
4.977947 7.405982 3.626292 149 152 152
5.02787 7.326797 3.539187 151 154 152
4.113256 7.377268 3.591998 255 254 255
4.213343 7.404698 3.603066 255 254 255
4.315897 7.44321 3.624268 255 254 255
4.692254 7.77472 3.882252 107 107 105
4.769219 7.701961 3.801846 148 149 148
4.833893 7.610856 3.705889 148 151 149
4.894071 7.525752 3.616289 151 154 154
4.94734 7.439127 3.526278 153 156 156
4.999634 7.364501 3.447779 155 158 158
4.314408 7.586822 3.615957 233 232 230
4.442074 7.726861 3.724293 37 36 36
4.577994 7.87165 3.835764 145 150 148
4.661576 7.803893 3.76332 148 152 152
4.734688 7.720141 3.677938 150 153 153
4.801392 7.636158 3.593229 152 155 155
4.863276 7.555938 3.512569 154 157 157
4.919221 7.475505 3.432534 155 160 160
4.971032 7.398868 3.356484 158 163 162
4.143201 8.018798 3.869717 77 53 49
4.25268 8.008531 3.847039 72 45 39
4.367704 8.041799 3.860818 11 8 12
4.461374 7.971434 3.788848 144 147 147
4.547274 7.89274 3.710757 144 150 149
4.626359 7.811532 3.631387 151 156 155
4.700651 7.734869 3.556504 154 157 157
4.769487 7.659136 3.483109 159 162 162
4.833237 7.584808 3.411559 160 165 164
4.890483 7.507552 3.338336 162 168 167
4.94362 7.433532 3.268399 162 167 167
0.9905384 7.268927 3.480921 109 111 117
1.070096 7.329854 3.520991 101 103 107
1.148952 7.395348 3.564843 94 95 98
4.143657 8.256007 3.91201 65 37 34
4.258043 8.246843 3.891202 36 28 26
4.34452 8.087564 3.752003 139 144 144
4.433815 7.997374 3.668464 147 153 152
4.518992 7.918792 3.594815 151 156 155
4.597427 7.837231 3.519541 155 160 160
4.671695 7.762117 3.449979 161 165 165
4.740309 7.686607 3.380758 165 170 170
4.804071 7.612809 3.313491 172 179 178
4.861651 7.536431 3.244856 180 185 183
4.916359 7.46609 3.181451 179 186 185
1.059257 7.413642 3.443209 120 123 133
1.15174 7.46383 3.471894 115 118 126
1.242924 7.518265 3.503988 106 108 114
1.330587 7.580521 3.542476 99 99 104
1.418164 7.647153 3.584341 92 93 96
1.498074 7.73005 3.639545 87 88 88
2.396132 7.771376 3.574899 255 254 255
4.019044 8.47728 3.943772 53 35 32
4.132499 8.400818 3.872753 116 114 113
4.229077 8.244986 3.742475 147 152 151
4.322813 8.137954 3.650052 150 155 155
4.410785 8.041252 3.566196 149 154 153
4.493848 7.954026 3.490158 154 159 158
4.572015 7.872513 3.419044 161 166 166
4.64532 7.794652 3.351261 169 174 173
4.712832 7.715988 3.283481 185 191 188
4.776771 7.643102 3.220532 189 197 193
4.834165 7.566056 3.155085 192 199 197
4.889165 7.496281 3.09549 190 198 195
1.238104 7.59479 3.418399 123 128 137
1.334009 7.646014 3.446396 118 122 129
1.43032 7.699581 3.476063 112 116 124
1.522159 7.763189 3.513506 101 103 109
1.608374 7.840566 3.561559 97 97 102
1.687281 7.937298 3.624472 88 88 91
2.797333 8.126614 3.653675 216 219 219
2.904708 8.209465 3.703649 96 95 90
3.010191 8.322692 3.776 90 86 81
3.127598 8.394072 3.816607 67 62 59
3.250982 8.438248 3.836752 102 102 97
4.002482 8.582767 3.868471 139 142 142
4.108208 8.417494 3.737338 146 150 150
4.207714 8.292437 3.636198 150 155 155
4.300129 8.178161 3.54363 154 159 159
4.387365 8.079125 3.462705 155 160 159
4.469926 7.990907 3.390142 159 166 166
4.547006 7.905804 3.320394 171 179 177
4.619054 7.824067 3.2536 189 194 192
4.686789 7.746833 3.19052 195 203 200
4.750439 7.673343 3.130576 198 205 203
4.808 7.596638 3.068881 200 205 202
4.862971 7.526562 3.012283 199 204 202
1.421672 7.780446 3.392827 128 136 144
1.521324 7.832144 3.419751 123 128 135
1.620609 7.887613 3.449324 118 121 129
1.714471 7.956372 3.488599 110 114 120
1.804201 8.038754 3.537695 103 105 112
1.896346 8.124521 3.58892 93 95 99
1.988335 8.219872 3.646806 86 88 90
2.899948 8.250051 3.586035 255 254 255
3.01434 8.305074 3.613944 255 254 255
3.124144 8.401981 3.671313 92 91 88
3.233359 8.540447 3.757558 80 75 74
3.352317 8.646524 3.820467 68 57 56
3.475762 8.757017 3.886036 70 54 51
3.863703 8.741772 3.840694 142 145 145
3.979753 8.590498 3.725376 148 153 153
4.08666 8.453478 3.620764 152 157 157
4.185303 8.326098 3.523579 154 159 158
4.277688 8.215181 3.438372 155 160 159
4.364484 8.115738 3.361624 158 162 164
4.446042 8.024111 3.290766 169 177 175
4.522328 7.936802 3.223375 187 194 193
4.594399 7.856122 3.160959 197 205 203
4.661674 7.777747 3.100574 201 208 206
4.72444 7.701677 3.04219 202 210 208
4.782076 7.625231 2.984005 206 211 210
4.838058 7.557895 2.932286 204 209 208
1.712988 8.023631 3.392904 126 133 144
1.814154 8.083336 3.423976 122 128 137
1.912763 8.153069 3.461858 117 123 130
2.01306 8.225727 3.501529 109 111 117
2.111693 8.309921 3.54893 100 102 106
2.212832 8.397726 3.598504 93 96 99
2.319161 8.482244 3.645492 86 86 89
2.432467 8.55644 3.685116 77 79 77
3.718859 8.891567 3.801056 146 151 151
3.84349 8.744905 3.694361 148 155 153
3.958292 8.603452 3.591897 151 158 159
4.064443 8.473494 3.497705 154 161 161
