ply
format ascii 1.0
comment author: PIX4Dcatch
element vertex 1179
property float x
property float y
property float z
property uchar red
property uchar green
property uchar blue
end_header
-2.1751 -2.120056 3.893508 208 203 191
-2.252954 -2.059124 3.907056 178 163 153
-2.329647 -1.997748 3.919199 146 133 122
0.751438 -5.173454 3.884146 171 169 161
0.6624467 -5.097856 3.894497 182 179 169
0.5734544 -5.008511 3.893278 180 175 164
0.4852883 -4.91761 3.890063 186 177 167
0.3980254 -4.827443 3.886714 195 184 171
0.3116775 -4.737822 3.883065 199 186 173
0.2262269 -4.649113 3.879436 200 189 178
-0.02680761 -4.399429 3.879634 203 189 175
-0.1086841 -3.887211 3.516583 255 254 255
-0.2575899 -4.09608 3.816167 207 200 187
-0.3417572 -4.033025 3.833064 190 179 166
-0.424722 -3.965574 3.845262 196 187 175
-0.5111974 -3.907201 3.868018 167 150 137
-0.5874012 -3.580626 3.6565 132 133 134
-0.6587883 -3.507118 3.653976 146 144 143
-0.7294927 -3.43428 3.651447 160 155 156
-0.802422 -3.366789 3.655269 167 158 156
-0.8774555 -3.303309 3.664216 178 161 156
-1.124424 -3.299277 3.866127 190 183 170
-1.198556 -3.226068 3.866136 215 206 193
-1.274662 -3.156133 3.870542 218 210 200
-1.348577 -3.084701 3.871865 224 217 206
-1.419971 -3.011866 3.869913 226 218 208
-1.490721 -2.939641 3.867938 227 219 209
-1.562141 -2.869055 3.8679 228 221 210
-1.632698 -2.798745 3.867377 228 223 214
-1.705503 -2.730871 3.870773 227 221 210
-1.773725 -2.660704 3.868429 225 220 211
-1.84237 -2.591747 3.867455 231 224 215
-1.912959 -2.524668 3.869678 227 221 212
-1.98575 -2.459277 3.875152 226 220 211
-2.057298 -2.393689 3.879427 221 215 206
-2.126404 -2.327505 3.88117 220 215 204
-2.195335 -2.261817 3.883185 216 211 202
-2.265783 -2.197192 3.887356 203 197 188
-2.339121 -2.133888 3.895042 179 165 150
-2.408424 -2.069597 3.898542 143 132 122
-2.353182 -1.972821 3.771166 98 33 24
0.5929292 -5.221796 3.882885 112 111 102
-0.1737936 -3.975374 3.498524 255 254 255
-0.4127476 -4.122217 3.805799 188 179 170
-0.4951785 -4.051586 3.815035 173 161 153
-0.6645675 -3.681603 3.654635 154 153 154
-0.7367406 -3.606939 3.652491 164 163 163
-0.808528 -3.533453 3.650981 165 160 161
-0.8806089 -3.462085 3.651395 157 146 145
-0.9620175 -3.405748 3.671221 153 133 130
-1.212111 -3.399866 3.865514 174 172 165
-1.292133 -3.331304 3.874484 183 177 172
-1.987489 -2.599808 3.844151 212 206 199
-2.059983 -2.533655 3.849053 211 205 198
-2.130752 -2.46711 3.852271 194 186 182
-2.199284 -2.400101 3.853338 194 186 179
-2.267308 -2.33351 3.854334 192 186 179
-2.336333 -2.267893 3.856904 211 208 204
-2.406613 -2.203196 3.861206 214 216 211
-0.2447965 -4.082819 3.497334 255 254 255
-0.7477447 -3.793184 3.661547 197 198 199
-0.8220183 -3.71908 3.662084 197 197 199
-0.8958777 -3.645785 3.662917 211 207 210
-0.9754567 -3.582879 3.675974 214 204 202
-1.059464 -3.52624 3.69715 156 140 136
-0.8310758 -3.90324 3.66283 104 107 109
-0.9055704 -3.82651 3.662167 118 117 120
-0.9833902 -3.757079 3.66918 127 125 124
-1.0598 -3.686076 3.674033 147 143 142
-1.144557 -3.62796 3.694249 170 158 154
-1.873128 -3.997892 4.492814 196 194 189
-1.957751 -3.898814 4.483498 212 210 206
-2.047468 -3.807204 4.483274 220 220 215
0.4743817 -5.198286 3.493965 151 153 149
-0.9915521 -3.937021 3.662091 219 219 219
-1.070105 -3.86589 3.668679 201 200 200
-1.14576 -3.791005 3.670671 168 163 163
-1.229656 -3.729137 3.687335 154 141 143
-2.016047 -4.159256 4.533019 194 192 190
-0.5491742 -4.35393 3.50046 255 254 255
-1.078918 -4.048724 3.659772 158 162 158
-1.158617 -3.97665 3.666768 136 135 136
-1.234624 -3.899633 3.668065 179 172 175
-1.317494 -3.833705 3.681187 186 177 177
-1.253487 -4.096735 3.670974 113 114 113
-1.33246 -4.021055 3.675504 174 172 173
2.858816 -3.338536 4.513477 157 153 148
2.769653 -3.263184 4.516387 162 158 152
2.68283 -3.189811 4.521946 168 164 160
2.595854 -3.116308 4.525877 170 166 163
2.507551 -3.041683 4.525698 172 167 164
2.421238 -2.96874 4.527621 169 165 159
2.334692 -2.895601 4.527231 167 161 156
2.249362 -2.823488 4.527462 161 154 149
2.164627 -2.751878 4.526983 161 155 148
2.080698 -2.68095 4.526237 161 155 148
2.893507 -3.495358 4.491268 167 167 160
2.807097 -3.42194 4.500802 168 164 159
2.718009 -3.346073 4.504665 170 166 160
2.629933 -3.27108 4.508866 178 174 170
2.542959 -3.197044 4.513651 178 176 171
2.455025 -3.122089 4.515007 174 172 168
2.368819 -3.048656 4.518087 176 172 166
2.282393 -2.974972 4.518908 172 166 160
2.196911 -2.902095 4.519833 169 163 156
2.112139 -2.829812 4.520344 168 162 155
2.027519 -2.757603 4.518969 168 162 155
1.943998 -2.686343 4.517992 171 165 158
1.861989 -2.616423 4.518738 171 165 158
1.780392 -2.546817 4.518184 173 165 158
1.699464 -2.47776 4.516947 162 155 148
1.619262 -2.409306 4.515133 157 149 141
1.54018 -2.341833 4.514174 148 140 132
1.461648 -2.274792 4.511955 61 57 53
0.025199 -1.024239 3.639443 120 13 20
-0.02198845 -0.9839464 3.637765 112 15 21
-0.07158339 -0.9419944 3.649592 115 13 24
2.845339 -3.584534 4.484601 177 176 171
2.758965 -3.51082 4.495424 175 173 166
2.667836 -3.432456 4.496829 173 169 164
2.578965 -3.35618 4.500654 181 178 174
2.490586 -3.280288 4.503819 184 182 177
2.401202 -3.203306 4.503188 183 181 176
2.312648 -3.127017 4.50217 181 177 172
2.2256 -3.05209 4.50227 178 172 167
2.139793 -2.978271 4.503076 175 169 162
2.055023 -2.905369 4.504239 175 167 163
1.970882 -2.832968 4.504762 175 167 161
1.886959 -2.760645 4.503405 178 170 163
1.803542 -2.688678 4.500706 179 172 165
1.72239 -2.618905 4.502134 173 165 158
1.640056 -2.547707 4.496664 161 153 147
1.560901 -2.479711 4.49908 101 93 90
1.481235 -2.410976 4.496431 80 67 61
1.40208 -2.342571 4.491915 121 112 105
1.325259 -2.276562 4.493971 87 75 65
1.037912 -1.980491 3.668552 131 130 127
0.9789646 -1.929577 3.665665 115 112 108
0.9206972 -1.879236 3.662571 114 111 105
0.8631794 -1.829567 3.659918 124 113 109
0.8068291 -1.781242 3.663015 138 122 114
0.7509516 -1.733348 3.666514 133 119 109
0.695444 -1.685703 3.668857 132 118 110
0.6419536 -1.64299 3.725327 125 125 121
0.3233924 -1.412318 4.463276 175 171 164
0.2568999 -1.355444 4.469452 182 178 170
0.1908687 -1.298938 4.475138 187 183 175
0.1252571 -1.242797 4.480875 183 179 171
0.05989403 -1.186944 4.487892 188 184 176
-0.004719198 -1.131586 4.492339 189 185 178
-0.06789094 -1.077115 4.490794 193 189 183
-0.1328224 -1.021907 4.502431 190 187 181
2.793733 -3.672807 4.473564 180 178 174
2.708489 -3.599976 4.487473 168 164 158
2.616545 -3.520163 4.488452 158 151 143
2.525873 -3.441502 4.489953 88 81 75
2.437118 -3.364678 4.493372 137 130 123
2.346686 -3.285922 4.491478 164 158 149
2.256694 -3.207418 4.48815 178 171 160
2.170495 -3.132768 4.491028 161 152 142
2.084192 -3.05782 4.4916 156 144 135
1.999106 -2.983999 4.492945 166 155 142
1.915301 -2.911394 4.495425 161 148 135
1.832749 -2.839994 4.499221 166 155 142
1.750278 -2.768481 4.500947 183 170 157
1.664384 -2.692701 4.488283 161 150 136
1.503656 -2.553183 4.490047 196 188 180
1.424205 -2.484099 4.489604 175 165 158
1.345462 -2.41557 4.48848 162 152 145
1.268867 -2.349513 4.494129 142 129 120
1.192003 -2.282775 4.494778 155 143 136
0.9944118 -2.037756 3.677393 127 118 112
0.9344529 -1.985027 3.670441 123 115 109
0.8758593 -1.933885 3.667961 120 108 103
0.8179303 -1.883296 3.665192 122 110 105
0.7609601 -1.833883 3.66626 115 109 105
0.7045923 -1.785117 3.668693 96 95 92
0.6487349 -1.736898 3.672286 127 128 123
0.5936238 -1.691605 3.701271 135 140 135
0.5335814 -1.709202 4.479263 153 152 147
0.4639257 -1.650089 4.495084 153 154 147
0.395161 -1.590089 4.492396 159 157 151
0.3271474 -1.530772 4.490023 172 171 162
0.2598801 -1.472104 4.487669 180 176 168
0.1932879 -1.41408 4.485952 184 180 172
0.1272396 -1.356654 4.485634 187 183 175
0.06196746 -1.299813 4.484317 187 184 176
-0.003270864 -1.243386 4.487283 186 182 175
-0.06790477 -1.187435 4.489702 189 185 178
-0.1316701 -1.13207 4.49024 196 192 184
-0.1961021 -1.076687 4.49704 194 190 184
-0.2584743 -1.022389 4.495986 195 191 185
-0.3201584 -0.9686632 4.49463 191 189 183
-0.3752672 -0.9185015 4.469307 192 188 183
-0.4370698 -0.8652604 4.474507 191 187 181
-0.5010414 -0.8109518 4.488824 192 188 182
2.662653 -3.696843 4.489319 202 197 194
2.5683 -3.613813 4.487338 181 179 171
2.476731 -3.533612 4.488531 192 190 184
2.38774 -3.456067 4.492987 202 202 197
2.296241 -3.375448 4.490242 197 197 192
2.207311 -3.297478 4.490747 195 195 188
2.119939 -3.221045 4.492656 189 187 181
2.033935 -3.14596 4.495777 188 184 176
1.947856 -3.070514 4.496467 188 182 175
1.863551 -2.996923 4.499623 193 188 181
1.780706 -2.924863 4.504838 196 190 183
1.699708 -2.854889 4.513887 205 197 191
1.448864 -2.632507 4.495087 194 186 178
1.36878 -2.562181 4.494617 185 177 167
1.289049 -2.491843 4.491496 168 156 148
1.211124 -2.423677 4.493223 140 129 120
1.134671 -2.357375 4.499661 162 150 143
0.9493242 -2.09577 3.683223 225 234 236
0.8887767 -2.041563 3.674318 165 164 161
0.8298702 -1.989672 3.672642 155 154 153
0.7715602 -1.938183 3.66996 171 170 171
0.7140722 -1.887695 3.66958 184 184 183
0.6571978 -1.837795 3.669616 158 149 145
0.6009401 -1.788774 3.672439 138 116 107
0.5450921 -1.741831 3.68944 152 159 154
0.4720017 -1.773118 4.476563 157 157 150
0.4015086 -1.713954 4.498755 157 157 150
0.332289 -1.653044 4.497326 165 163 156
0.26397 -1.592667 4.493773 171 169 161
0.196354 -1.533031 4.491245 180 176 169
0.1295746 -1.474041 4.487983 186 182 176
0.0634332 -1.41573 4.485716 189 186 178
-0.001979589 -1.358054 4.483402 186 182 174
-0.06733572 -1.300908 4.485058 187 184 176
-0.1321084 -1.244263 4.486623 190 186 178
-0.1958727 -1.188231 4.485952 193 189 182
-0.259427 -1.132619 4.487217 195 191 185
-0.3220605 -1.077625 4.486917 197 194 188
-0.3847147 -1.022914 4.4891 197 193 187
-0.4459363 -0.9690399 4.487815 195 191 186
-0.5060473 -0.9159275 4.484777 194 190 184
-0.5683838 -0.8620358 4.491421 194 190 184
2.706873 -3.875694 4.484073 199 200 196
2.617287 -3.797847 4.494069 193 192 189
2.523834 -3.715255 4.495486 193 191 187
2.430018 -3.631913 4.494121 195 192 190
2.339728 -3.552472 4.497805 198 197 194
2.248614 -3.471717 4.497699 199 199 194
2.159597 -3.393205 4.500082 198 198 193
2.070014 -3.313625 4.49879 197 195 189
1.982975 -3.236903 4.501421 194 190 184
1.895944 -3.159817 4.50164 193 187 182
1.810272 -3.084119 4.503059 199 191 185
1.725767 -3.009595 4.50538 202 194 188
1.643764 -2.93818 4.513508 211 203 195
1.39213 -2.712727 4.497395 204 196 186
1.311377 -2.641023 4.496443 196 189 179
1.230814 -2.568878 4.491513 177 165 157
1.152461 -2.499813 4.493884 143 131 124
1.075722 -2.433156 4.502625 161 149 142
0.8418217 -2.098863 3.676009 147 138 134
0.7824874 -2.04589 3.673433 156 142 136
0.7239216 -1.99374 3.671778 159 143 138
0.6660556 -1.942337 3.670951 165 149 141
0.6088499 -1.891812 3.672035 161 142 137
0.5521892 -1.84154 3.671619 143 124 114
0.4959848 -1.792705 3.67792 158 158 156
0.4092687 -1.83829 4.474574 157 156 151
0.3380769 -1.778604 4.496686 159 159 152
0.26851 -1.716843 4.49593 167 165 159
0.2000299 -1.655451 4.491302 175 173 166
0.1320507 -1.59498 4.489781 183 181 175
0.06487951 -1.535129 4.48764 184 182 174
-0.001478136 -1.475921 4.484988 191 187 179
-0.06743169 -1.417388 4.484397 190 186 179
-0.132722 -1.359441 4.483803 189 185 178
-0.197146 -1.302099 4.482144 190 186 179
-0.2613676 -1.245275 4.482684 196 192 186
-0.3248404 -1.189013 4.48257 196 194 187
-0.3878477 -1.133251 4.483031 199 196 190
-0.4501827 -1.078034 4.483152 197 195 188
-0.5117646 -1.023393 4.48268 196 192 188
-0.5741927 -0.9687397 4.487011 197 193 189
-0.6378551 -0.9138031 4.496611 194 189 186
2.567584 -3.897501 4.493 198 198 193
2.476159 -3.816972 4.499949 194 193 188
2.382341 -3.733079 4.500365 185 183 178
2.290013 -3.650688 4.501688 197 197 192
2.198673 -3.569173 4.502955 201 200 197
2.108478 -3.48875 4.504586 200 200 195
2.017888 -3.407316 4.502707 200 199 194
1.929037 -3.327764 4.502559 196 191 186
1.841517 -3.249578 4.503347 195 190 185
1.754838 -3.172078 4.503787 199 191 185
1.669503 -3.096032 4.50556 207 199 193
1.586584 -3.023208 4.512999 216 208 200
1.330878 -2.788927 4.484057 215 208 197
1.253079 -2.722346 4.500376 205 195 184
1.172147 -2.649168 4.496417 180 170 161
1.09268 -2.577872 4.495507 136 126 121
1.014909 -2.509337 4.501245 160 149 142
0.793777 -2.15721 3.676944 124 122 120
0.7340926 -2.103248 3.674049 131 129 125
0.6752291 -2.050396 3.673158 133 133 130
0.6170521 -1.998501 3.674097 134 137 133
0.5594398 -1.946709 3.672887 140 140 136
0.5024775 -1.895407 3.671184 136 128 121
0.4458705 -1.845909 3.677424 122 121 116
0.3454255 -1.904515 4.471271 156 156 151
0.2737676 -1.843968 4.490458 163 161 154
0.2037691 -1.781577 4.491853 166 164 158
0.1348275 -1.719455 4.489624 181 179 171
0.06645885 -1.658134 4.48894 188 185 178
-0.0009757876 -1.597361 4.486719 188 186 179
-0.06772834 -1.537277 4.484912 192 188 182
-0.1337336 -1.477839 4.482985 196 193 185
-0.1991805 -1.419051 4.481855 195 191 184
-0.2642014 -1.360861 4.481892 201 197 189
-0.3284159 -1.303254 4.481182 198 194 188
-0.3922573 -1.246184 4.481557 198 196 189
-0.4558457 -1.189581 4.483224 199 197 191
-0.5187318 -1.133508 4.484359 200 198 192
-0.5806125 -1.078058 4.484016 198 196 190
-0.6428581 -1.022848 4.486699 198 195 191
-0.7073962 -0.9671427 4.497709 196 192 189
2.513697 -3.995369 4.486044 202 202 197
2.424133 -3.917076 4.49821 196 195 191
2.33271 -3.835982 4.505311 193 191 186
2.238556 -3.750679 4.50456 200 197 193
2.146801 -3.66821 4.50681 202 202 199
2.054513 -3.584419 4.505268 201 201 198
1.964497 -3.50336 4.506784 200 198 194
1.873031 -3.419451 4.501357 199 195 189
1.785017 -3.340143 4.502609 197 191 186
1.697763 -3.261387 4.503242 203 195 189
1.611615 -3.183745 4.504395 209 202 193
1.527178 -3.108331 4.508627 220 211 203
1.165937 -2.580378 3.599642 255 254 255
1.262275 -2.852825 4.436499 222 216 203
1.192469 -2.803513 4.498853 210 203 190
1.111507 -2.73003 4.497609 191 182 172
1.031835 -2.658341 4.499204 123 116 109
0.9520077 -2.584506 4.491741 162 152 144
0.7445385 -2.216117 3.67541 192 189 189
0.6846834 -2.161889 3.674932 152 147 146
0.625496 -2.108404 3.675086 184 181 178
0.5669207 -2.055164 3.673846 209 209 208
0.5089767 -2.002937 3.674606 141 136 134
0.4516455 -1.951024 3.674277 139 125 120
0.3947296 -1.900267 3.677473 132 119 114
0.2800882 -1.972639 4.472337 155 157 151
0.2079833 -1.911024 4.488521 163 161 155
0.1375242 -1.847848 4.490936 167 164 156
0.06821379 -1.784813 4.4893 177 176 167
-0.0005691051 -1.722607 4.489254 185 183 177
-0.06800306 -1.660746 4.485256 189 187 181
-0.1352428 -1.599821 4.484691 190 188 180
-0.2013877 -1.539441 4.482118 192 188 181
-0.2671763 -1.479783 4.481349 192 188 180
-0.3325618 -1.420746 4.48174 196 191 186
-0.3971316 -1.362282 4.481387 196 192 186
-0.4618735 -1.30433 4.484047 196 194 187
-0.5253531 -1.246956 4.484168 197 195 189
-0.5887724 -1.190037 4.486094 196 192 187
-0.6515984 -1.133619 4.487858 191 189 183
-0.7144536 -1.077547 4.491306 194 190 186
-0.7793351 -1.021211 4.501837 190 188 182
2.461363 -4.098905 4.484128 202 202 197
2.372202 -4.021277 4.499071 198 198 193
2.27999 -3.938919 4.506448 195 193 189
2.186663 -3.854418 4.50945 197 195 191
2.093706 -3.769874 4.510969 199 199 196
2.000515 -3.684268 4.509185 202 202 199
1.908677 -3.600029 4.507912 201 199 195
1.816972 -3.515148 4.503668 200 196 191
1.726986 -3.432231 4.500957 197 191 186
1.638317 -3.350667 4.498821 203 195 188
1.55164 -3.271785 4.500047 211 202 194
1.466903 -3.19575 4.505449 220 211 201
1.115586 -2.636507 3.578038 255 254 255
1.127519 -2.878375 4.477107 215 206 194
1.049627 -2.812996 4.499645 199 190 178
0.9691136 -2.739239 4.498901 78 74 70
0.8876893 -2.659358 4.477552 162 152 145
0.6942439 -2.275757 3.672353 191 190 187
0.6341811 -2.221528 3.674882 145 147 144
0.5746353 -2.166784 3.673569 152 155 153
0.5157482 -2.113161 3.674277 154 155 153
0.4574431 -2.060175 3.675395 162 159 157
0.3997477 -2.007554 3.675763 164 154 153
0.342457 -1.955962 3.678701 138 129 126
0.2127723 -2.043351 4.480126 151 153 147
0.1404199 -1.980101 4.491251 157 155 149
0.07002667 -1.915369 4.489637 158 154 146
0.0002985001 -1.851452 4.488833 172 168 161
-0.06879491 -1.788282 4.488678 177 175 169
-0.1368767 -1.725612 4.486874 183 180 176
-0.2039178 -1.663532 4.483663 181 179 173
-0.2703782 -1.602233 4.481426 184 180 174
-0.3360351 -1.541609 4.478959 187 181 176
-0.4014263 -1.481711 4.478374 180 176 170
-0.4672288 -1.422458 4.481762 195 189 184
-0.5321056 -1.363694 4.483762 185 183 177
-0.5962427 -1.305457 4.485181 117 108 102
-0.6597632 -1.24775 4.486471 68 58 49
-0.7232794 -1.190475 4.489428 79 69 62
-0.7856532 -1.133785 4.4906 120 112 100
-0.8510428 -1.076806 4.50137 83 71 57
2.318193 -4.126739 4.4982 200 200 193
2.226664 -4.045425 4.509139 193 191 185
2.132608 -3.959568 4.512542 193 190 186
2.038295 -3.872549 4.512796 196 196 191
1.94494 -3.786291 4.51263 194 193 191
1.852297 -3.700349 4.511296 198 194 189
1.759292 -3.612678 4.505211 195 190 185
1.668278 -3.52748 4.501288 197 192 185
1.578634 -3.443699 4.497882 194 186 177
1.491369 -3.36353 4.4993 161 150 140
1.405804 -3.285918 4.504082 158 146 137
1.065982 -2.695795 3.562338 255 254 255
1.030256 -2.713485 3.735074 228 221 203
1.061566 -2.95292 4.452578 214 202 187
0.9839149 -2.889422 4.480555 183 172 157
0.9046992 -2.820472 4.494877 162 153 143
0.8216935 -2.731272 4.452108 121 108 93
0.6430158 -2.336884 3.670307 201 202 201
0.5826155 -2.282619 3.675459 222 223 224
0.52275 -2.226476 3.672525 219 217 219
0.4635511 -2.171844 3.672647 203 196 195
0.4048162 -2.118587 3.675993 204 197 195
0.3469103 -2.064697 3.674571 168 157 154
0.2891558 -2.012632 3.678894 148 139 137
0.1444883 -2.114583 4.48168 114 110 101
0.07265189 -2.048954 4.484097 97 92 87
0.002269685 -1.983075 4.481082 111 102 93
-0.06766468 -1.918315 4.480473 116 106 101
-0.1361628 -1.853781 4.47611 117 109 101
-0.2034951 -1.789895 4.470291 128 127 116
-0.270449 -1.727065 4.466877 144 136 124
-0.3371246 -1.665146 4.465693 120 106 95
-0.4012592 -1.603487 4.457397 64 49 37
-0.4662793 -1.542984 4.45583 60 37 23
-0.5311472 -1.483184 4.456177 57 34 25
-0.5947453 -1.423949 4.454458 67 48 36
-0.6565704 -1.365379 4.449419 83 64 54
-0.7174894 -1.30755 4.444059 98 83 72
-0.7759038 -1.250636 4.433931 127 120 109
-0.8297039 -1.195111 4.414014 170 164 157
-0.8923035 -1.138984 4.419745 174 169 164
2.26285 -4.23459 4.49718 184 177 167
2.171279 -4.153434 4.510249 106 98 90
2.07623 -4.065734 4.513357 45 32 25
1.981163 -3.97711 4.513724 63 53 52
1.887128 -3.889358 4.513816 119 105 99
1.793003 -3.800295 4.5102 163 154 147
1.699041 -3.710157 4.502882 205 197 191
1.607315 -3.623059 4.498437 216 209 201
1.516909 -3.53725 4.494166 210 203 196
1.42878 -3.455042 4.494355 203 195 187
1.340053 -3.369714 4.4868 177 169 163
1.016709 -2.758354 3.55187 255 254 255
0.9600818 -2.720824 3.598181 237 234 217
0.7518098 -2.779917 4.363962 156 147 137
0.590769 -2.399588 3.669232 132 139 135
0.5299371 -2.344537 3.674473 141 144 140
0.4697867 -2.287497 3.671789 146 149 145
0.4101629 -2.232538 3.673903 172 170 168
0.3510951 -2.178111 3.67606 206 198 196
0.2928765 -2.123359 3.674839 198 184 179
0.2342042 -2.071616 3.683985 152 145 141
0.07897291 -2.18033 4.450088 137 136 131
0.006746888 -2.115009 4.456442 145 142 138
-0.06084991 -2.045794 4.437976 153 151 145
-0.126738 -1.977677 4.41801 160 158 150
-0.1912143 -1.910964 4.398306 173 171 165
-0.2554701 -1.846269 4.384072 188 186 180
-0.3176413 -1.782314 4.366197 178 172 167
-0.3791977 -1.719844 4.351076 119 106 103
-0.4413467 -1.658982 4.342483 58 33 30
-0.502155 -1.59894 4.332582 35 0 0
-0.5634837 -1.54002 4.327541 55 5 0
-0.6257669 -1.481988 4.327872 72 10 7
-0.6880652 -1.424542 4.330018 65 10 3
-0.7511597 -1.367576 4.335858 77 15 10
-0.814428 -1.310957 4.343235 75 14 13
2.205716 -4.344162 4.49505 106 100 97
2.112691 -4.260758 4.506946 64 31 30
2.017417 -4.1725 4.511461 70 31 29
1.921802 -4.082585 4.512364 85 42 37
1.826587 -3.992248 4.511107 89 48 45
1.732018 -3.901847 4.508029 93 54 52
1.63838 -3.811877 4.503743 96 59 55
1.452109 -3.628369 4.482956 104 70 62
0.9666413 -2.82168 3.540896 255 254 255
0.9062191 -2.773356 3.564437 255 254 255
0.5374157 -2.464044 3.669323 178 182 182
0.4761946 -2.407234 3.671961 150 156 154
0.4157486 -2.349535 3.670217 142 148 146
0.3558156 -2.293536 3.671763 149 154 151
0.2964321 -2.238235 3.67379 148 151 149
0.2378989 -2.18275 3.673149 149 146 144
0.1778564 -2.132135 3.68953 176 170 168
0.006926298 -2.256228 4.461183 149 150 147
-0.0699966 -2.194874 4.491605 156 154 148
-0.1405481 -2.126013 4.485473 161 159 154
-0.2114943 -2.059291 4.48613 173 171 165
-0.282768 -1.994002 4.491496 179 177 171
-0.3523377 -1.928529 4.492018 186 184 177
-0.4194961 -1.862895 4.48595 189 185 179
-0.4878319 -1.798963 4.48749 190 186 180
-0.5560997 -1.735819 4.490987 191 187 181
-0.6240487 -1.673268 4.495271 183 179 173
-0.6903539 -1.611021 4.496184 197 193 188
-0.7547585 -1.549224 4.493464 198 194 189
-0.8185322 -1.488147 4.491079 197 194 188
-0.8829842 -1.427795 4.492387 195 191 185
-0.9470825 -1.368001 4.494301 196 192 187
-1.013064 -1.308613 4.502117 196 192 188
-1.079029 -1.249538 4.510735 189 184 180
2.160141 -4.481157 4.523432 208 207 204
2.058825 -4.382562 4.518849 203 203 198
1.96067 -4.288847 4.518811 196 194 192
1.863468 -4.195725 4.517995 198 196 193
1.76737 -4.103485 4.516761 203 200 198
1.671438 -4.009914 4.511896 204 202 200
1.57739 -3.91889 4.508856 203 200 198
1.485442 -3.831245 4.509169 200 196 191
1.395811 -3.748072 4.514997 199 194 187
1.305866 -3.662272 4.515145 204 197 188
1.216243 -3.575032 4.511032 169 164 156
1.128794 -3.492394 4.513082 220 211 197
0.8537863 -2.832425 3.54365 255 254 255
0.7879593 -3.168672 4.517079 205 196 184
0.7053203 -3.092586 4.52391 186 174 163
0.6232238 -3.014494 4.524583 171 160 151
0.4828108 -2.531069 3.672378 212 219 221
0.4213434 -2.4714 3.66996 235 242 244
0.3607084 -2.412251 3.666869 229 238 240
0.3005669 -2.355032 3.667335 203 209 211
0.2408683 -2.299011 3.669696 154 155 155
0.1823204 -2.242175 3.667387 133 129 127
0.1218352 -2.190962 3.683306 164 144 138
-0.06405973 -2.329613 4.454332 148 149 146
-0.1449205 -2.271778 4.50154 154 154 149
-0.2167888 -2.202438 4.499748 164 162 156
-0.2876183 -2.133725 4.497068 173 171 164
-0.3580784 -2.066195 4.496411 181 179 173
-0.4278685 -1.999464 4.496143 189 187 181
-0.4968893 -1.933432 4.495789 190 188 181
-0.5657005 -1.868327 4.497207 193 191 185
-0.6342795 -1.804001 4.499987 196 192 186
-0.701152 -1.739945 4.499451 196 194 188
-0.7686618 -1.676857 4.502759 198 196 191
-0.8337198 -1.614005 4.500937 199 197 192
-0.8989211 -1.551951 4.501392 199 197 190
-0.9634001 -1.490507 4.501653 198 197 190
-1.027939 -1.429691 4.503589 202 198 192
-1.09209 -1.369423 4.505954 197 193 189
-1.159442 -1.309503 4.516623 196 192 188
2.094641 -4.586222 4.508527 212 213 210
1.997675 -4.496145 4.516413 208 207 205
1.899597 -4.402492 4.518754 206 206 203
1.800387 -4.304645 4.514225 202 199 197
1.703621 -4.210639 4.512977 206 203 201
1.607857 -4.117182 4.510801 208 206 204
1.51251 -4.022583 4.505205 207 204 202
1.419874 -3.933144 4.505237 204 199 196
1.328033 -3.843737 4.503642 204 198 193
1.236672 -3.753029 4.498137 206 198 190
1.146097 -3.661463 4.489049 204 197 188
1.057397 -3.573009 4.482844 217 207 193
0.8015576 -2.895793 3.529833 255 254 255
0.7170119 -3.247125 4.489072 206 197 187
0.634447 -3.173054 4.501609 189 178 167
0.5523037 -3.094485 4.503276 172 160 151
0.4712204 -3.013147 4.496543 165 156 148
0.4273997 -2.59478 3.663415 173 175 176
0.36576 -2.534457 3.661641 200 204 205
0.3048168 -2.4752 3.660741 201 204 204
0.2442701 -2.417714 3.662914 223 226 224
0.1842153 -2.361037 3.665828 181 179 179
0.1255436 -2.303112 3.663018 168 159 156
0.06406754 -2.252172 3.681683 151 139 136
-0.1350506 -2.402467 4.440645 144 146 144
-0.2190137 -2.347242 4.497924 152 152 147
-0.2911118 -2.276763 4.496026 165 163 159
-0.3622587 -2.207026 4.493735 174 172 166
-0.4335807 -2.138896 4.495379 183 181 175
-0.5038233 -2.071192 4.49566 190 188 181
-0.5725625 -2.003783 4.493376 192 190 183
-0.6413141 -1.93754 4.493705 192 190 182
-0.7097486 -1.872133 4.495206 193 191 184
-0.7775851 -1.80738 4.496874 197 194 190
-0.8447965 -1.74325 4.498588 200 198 191
-0.911553 -1.679762 4.50075 199 196 192
-0.9763907 -1.616665 4.499671 199 197 190
-1.04158 -1.554357 4.501095 198 196 189
-1.107159 -1.4927 4.504793 199 197 193
-1.171306 -1.431528 4.506505 197 193 190
-1.237744 -1.370886 4.514292 196 193 189
1.933672 -4.609171 4.510082 214 214 211
1.834662 -4.513264 4.511769 212 209 207
1.736629 -4.41799 4.512806 204 201 199
1.638021 -4.319106 4.507672 206 206 203
1.539606 -4.217967 4.497597 207 206 203
1.445591 -4.12679 4.498979 209 209 204
1.352135 -4.034886 4.497786 205 203 198
1.258573 -3.939401 4.489555 203 199 193
1.1663 -3.844461 4.479877 206 200 193
1.075783 -3.751915 4.471572 205 197 191
0.9870102 -3.662235 4.46562 208 199 187
0.749176 -2.964379 3.523628 255 254 255
0.6454364 -3.324731 4.458013 210 201 191
0.562805 -3.254497 4.479271 193 181 172
0.4804331 -3.178989 4.48934 176 162 154
0.3994658 -3.094337 4.478128 171 160 153
0.3711701 -2.658962 3.652998 131 136 136
0.3090096 -2.599762 3.656105 109 115 112
0.247634 -2.54035 3.657232 118 121 121
0.186929 -2.481508 3.658187 118 123 120
0.1265602 -2.424039 3.661256 120 125 121
0.06783915 -2.364913 3.657713 131 130 128
0.004921615 -2.314956 3.681023 139 125 121
-0.2058703 -2.474681 4.421073 122 124 122
-0.2951393 -2.42489 4.496824 155 154 149
-0.3682185 -2.353928 4.49772 163 160 156
-0.4388676 -2.282216 4.492292 176 174 168
-0.5101616 -2.212725 4.492636 181 182 174
-0.5809743 -2.144157 4.493894 185 183 177
-0.6511495 -2.076324 4.495378 190 188 182
-0.7196761 -2.008701 4.49403 191 189 181
-0.7891702 -1.94256 4.497592 195 193 187
-0.8573049 -1.876736 4.499107 196 194 188
-0.9248514 -1.811573 4.500798 197 195 188
-0.9909285 -1.746845 4.500464 199 196 192
-1.056991 -1.682926 4.50174 198 196 191
-1.124088 -1.619854 4.506772 199 197 192
-1.188755 -1.557085 4.507614 199 197 193
-1.253719 -1.494984 4.510396 195 193 189
-1.322845 -1.433532 4.522719 194 192 188
0.9135906 -3.739529 4.427289 103 94 86
0.6959502 -3.036064 3.520356 255 254 255
0.250801 -2.66794 3.65425 188 197 200
0.1894577 -2.606299 3.652431 188 196 198
0.1286588 -2.546074 3.652243 189 197 197
0.06845561 -2.486782 3.652695 175 177 179
0.009126008 -2.42775 3.652023 175 172 171
-0.05584067 -2.379646 3.682005 240 253 255
-0.4431263 -2.428743 4.484617 150 148 146
-0.5125522 -2.354894 4.474968 150 146 145
-0.5854619 -2.285828 4.480605 138 134 132
-0.658063 -2.217496 4.487036 130 125 123
-0.7290038 -2.149017 4.490146 126 120 112
-0.7998044 -2.081426 4.494647 117 111 103
-0.8693544 -2.014115 4.497371 109 100 97
-0.9385555 -1.947537 4.500815 46 35 30
-1.006107 -1.88122 4.501717 50 40 34
-1.07314 -1.815616 4.502988 54 43 37
-1.139718 -1.750702 4.504704 49 38 32
-1.206334 -1.686522 4.507856 52 43 37
-1.272531 -1.622926 4.51132 60 50 42
-1.338569 -1.559909 4.51557 53 41 40
-1.40818 -1.497623 4.52774 52 41 35
1.693118 -4.720238 4.472806 213 213 211
0.8455662 -3.865088 4.461406 209 201 193
0.6418941 -3.115543 3.527185 255 254 255
0.4148787 -3.453192 4.494397 194 182 173
0.1893842 -2.744798 3.668039 205 210 213
0.127833 -2.680516 3.66348 217 222 223
0.06604716 -2.620026 3.665815 218 222 224
0.004946232 -2.559994 3.667763 210 211 211
-0.0540933 -2.497962 3.66275 179 173 170
-0.1181083 -2.445994 3.683498 206 231 231
-0.5166609 -2.502096 4.462684 152 150 144
-0.5914225 -2.432349 4.471413 160 159 152
-0.6650839 -2.362566 4.478193 168 166 159
-0.7378482 -2.293063 4.483914 169 167 161
-0.8092318 -2.223625 4.487381 173 170 164
-0.8798268 -2.154745 4.490452 183 178 172
-0.950487 -2.086834 4.495292 185 179 174
-1.01937 -2.019008 4.497233 189 183 177
-1.086664 -1.951529 4.497045 176 169 164
-1.154059 -1.885015 4.498681 190 183 177
-1.221526 -1.819327 4.501855 184 177 171
-1.287568 -1.754062 4.50331 179 174 167
-1.353717 -1.689551 4.506242 186 178 170
-1.419613 -1.625656 4.509793 176 171 160
-1.488507 -1.562605 4.519928 168 162 155
1.620538 -4.825446 4.452189 214 213 211
1.524063 -4.734463 4.462987 208 206 204
1.427168 -4.639912 4.468812 195 192 190
1.331176 -4.546045 4.474269 202 201 198
1.235937 -4.452155 4.478479 206 205 203
1.140669 -4.35397 4.475935 206 205 202
1.04859 -4.267932 4.487508 203 200 196
0.9568857 -4.180815 4.496771 200 195 190
0.8652623 -4.088857 4.498237 203 196 190
0.7738526 -3.987674 4.484746 210 202 195
0.6846038 -3.89587 4.482646 218 210 202
0.4238291 -3.630486 4.481023 211 202 192
0.3381831 -3.553026 4.495855 193 183 174
0.2543216 -3.466161 4.492925 174 160 154
0.1709046 -3.384058 4.496823 167 155 150
0.1273076 -2.819641 3.672887 210 217 221
0.06518763 -2.754574 3.669573 214 221 224
0.003252387 -2.692019 3.669939 187 191 194
-0.05802631 -2.630283 3.67055 146 145 146
-0.1176754 -2.56759 3.667029 193 181 176
-0.1798367 -2.510852 3.676972 196 219 223
-0.4556267 -2.73955 4.481997 134 136 132
-0.5356887 -2.670599 4.501338 136 136 131
-0.6091934 -2.595051 4.499701 147 145 138
-0.6825466 -2.521094 4.500344 154 152 145
-0.7547002 -2.447618 4.499821 162 160 154
-0.8256015 -2.374677 4.498136 165 163 157
-0.8966262 -2.30322 4.498997 169 167 161
-0.9671894 -2.232678 4.50057 172 171 162
-1.036546 -2.162616 4.500962 176 175 168
-1.105491 -2.093443 4.502102 173 171 165
-1.174076 -2.025107 4.503991 178 176 170
-1.241416 -1.957261 4.504656 176 174 168
-1.307818 -1.890056 4.504831 176 175 168
-1.373901 -1.823649 4.505755 179 177 171
-1.440703 -1.758169 4.509306 176 174 168
-1.506099 -1.693141 4.511312 174 172 165
-1.576306 -1.629333 4.522976 173 171 165
1.547563 -4.934684 4.433842 210 209 206
1.45321 -4.852695 4.455738 202 200 198
1.357605 -4.76492 4.471016 199 196 193
1.261578 -4.673339 4.481341 194 192 188
1.165761 -4.579696 4.488315 200 199 196
1.070909 -4.48732 4.495697 202 202 199
0.9764315 -4.3923 4.498627 196 196 191
0.8830138 -4.298251 4.501385 194 190 184
0.7905929 -4.204495 4.503069 194 188 183
0.6988584 -4.104138 4.494016 202 194 188
0.6086916 -4.004496 4.483646 214 204 196
0.3457975 -3.737614 4.488157 211 201 191
0.2589999 -3.659801 4.504788 189 179 172
0.1741034 -3.573146 4.505552 170 158 151
0.09085235 -3.484599 4.501052 163 150 146
0.06552207 -2.890504 3.666105 216 222 227
0.00234288 -2.826708 3.667691 213 218 221
-0.06012207 -2.763533 3.669112 211 213 217
-0.1214644 -2.700186 3.668585 46 44 47
-0.1815616 -2.636754 3.666056 191 181 179
-0.2413821 -2.574951 3.665501 198 218 226
-0.5363761 -2.823128 4.475471 131 135 133
-0.6179169 -2.754353 4.497451 136 138 134
-0.6926836 -2.678577 4.498917 139 141 135
-0.7677612 -2.604621 4.503528 147 147 142
-0.8408099 -2.530219 4.504419 157 157 152
-0.9129755 -2.456553 4.505062 161 161 156
-0.982771 -2.382667 4.501804 162 162 157
-1.053901 -2.311006 4.50383 165 166 159
-1.124226 -2.240016 4.505628 169 167 160
-1.192888 -2.16932 4.505347 175 175 168
-1.261443 -2.099664 4.506433 170 170 165
-1.328529 -2.030471 4.505983 170 170 165
-1.396418 -1.962498 4.508538 171 170 166
-1.462862 -1.894967 4.509562 171 171 166
-1.528423 -1.828081 4.510201 172 172 167
-1.594073 -1.76202 4.512188 171 170 165
-1.664303 -1.697309 4.523071 164 164 159
1.372229 -4.206001 3.410654 152 155 155
1.316581 -4.198791 3.47998 142 145 143
1.476625 -5.05861 4.428217 199 196 194
1.285215 -4.888982 4.468586 182 178 174
1.18884 -4.798804 4.482389 181 179 174
1.091716 -4.700954 4.486763 189 187 183
0.9959982 -4.606691 4.494042 188 186 183
0.9009232 -4.511049 4.498522 187 184 180
0.8068873 -4.416694 4.503282 184 180 174
0.7138116 -4.32286 4.50739 183 177 170
0.6214578 -4.218123 4.495556 193 185 179
0.5308217 -4.118424 4.488172 205 196 186
0.4051295 -3.281931 3.522955 255 254 255
0.2657931 -3.845725 4.492326 209 198 188
0.177003 -3.772834 4.518979 185 173 166
0.09149942 -3.682907 4.517655 161 149 142
0.007849455 -3.59117 4.511218 150 139 133
0.001531065 -2.965647 3.664681 131 134 138
-0.06141508 -2.899261 3.663454 207 213 216
-0.1244124 -2.835551 3.665961 212 213 215
-0.1861964 -2.771441 3.666195 203 200 199
-0.2464863 -2.706821 3.663604 186 170 172
-0.3057148 -2.642718 3.660211 187 203 209
-0.618852 -2.908537 4.469355 126 129 127
-0.7027641 -2.840899 4.49625 127 130 128
-0.7788824 -2.764838 4.500535 130 134 132
-0.8533022 -2.688573 4.502125 136 137 134
-0.9268451 -2.613048 4.503479 140 142 138
-0.9995108 -2.538265 4.504599 148 149 146
-1.07016 -2.463471 4.502835 150 152 148
-1.141573 -2.390546 4.504714 152 153 150
-1.212074 -2.318272 4.506185 156 158 152
-1.281396 -2.246541 4.506721 158 160 156
-1.349896 -2.175554 4.507106 163 164 161
-1.418049 -2.105479 4.508243 162 164 161
-1.485565 -2.036152 4.509498 164 166 162
-1.552426 -1.967546 4.510808 162 164 161
-1.618667 -1.899652 4.512207 159 161 157
-1.68371 -1.832336 4.512694 158 160 155
-1.754431 -1.766758 4.523637 156 158 154
1.313109 -4.272681 3.380125 153 154 153
1.253456 -4.25534 3.438254 147 147 148
1.216079 -5.044306 4.495137 107 101 93
1.118352 -4.954361 4.511858 70 63 54
1.01978 -4.855076 4.517799 83 74 65
0.9224696 -4.759072 4.526229 62 58 53
0.8256873 -4.659801 4.529781 76 71 67
0.7299278 -4.560258 4.531608 156 152 147
0.6352245 -4.457676 4.528139 173 168 163
0.5419284 -4.355791 4.523663 175 169 165
0.4502646 -4.249769 4.511716 192 182 173
0.3464648 -3.348268 3.501186 255 254 255
0.0888344 -3.90847 4.562519 166 157 149
0.003332376 -3.809185 4.550876 153 141 134
-0.07930279 -3.707008 4.531687 136 127 119
-0.06528717 -3.04613 3.669653 207 212 213
-0.1281735 -2.977199 3.666311 212 219 219
-0.1916656 -2.912333 3.668972 204 209 210
-0.2537613 -2.846802 3.668904 182 179 179
-0.3140423 -2.780359 3.665232 63 57 58
-0.3716704 -2.71233 3.655967 196 220 226
-0.7088521 -3.003145 4.480627 106 107 106
-0.7915016 -2.931658 4.500613 108 107 104
-0.8680934 -2.854139 4.504752 114 114 111
-0.9417806 -2.775346 4.50336 116 117 114
-1.017104 -2.699639 4.508106 126 125 122
-1.089133 -2.622664 4.506801 132 131 128
-1.161753 -2.547609 4.508741 134 133 130
-1.232978 -2.472946 4.509305 137 139 135
-1.303577 -2.399196 4.510191 138 139 135
-1.373306 -2.32619 4.510858 140 141 138
-1.441745 -2.253748 4.510507 144 145 142
-1.510103 -2.182392 4.511433 143 144 141
-1.578773 -2.112142 4.514188 144 143 140
-1.646292 -2.04242 4.516071 144 145 142
-1.711047 -1.972858 4.514439 140 142 138
-1.777697 -1.904698 4.517144 140 141 138
-1.848117 -1.837998 4.526785 134 134 131
1.192589 -4.32106 3.405251 143 146 145
1.036801 -5.055605 4.480017 105 101 93
0.9395703 -4.968321 4.499889 103 99 90
0.8427768 -4.882915 4.521445 95 91 85
0.7461164 -4.796235 4.541311 106 104 97
0.6495606 -4.703052 4.553288 108 102 94
0.5536928 -4.609934 4.564466 105 100 91
0.458468 -4.51984 4.57843 110 102 94
0.3646561 -4.416887 4.575254 120 111 101
0.2855283 -3.428265 3.496986 255 254 255
0.007548928 -3.997485 4.530369 103 93 82
-0.07876122 -3.901837 4.526343 101 92 82
-0.16071 -3.797209 4.506042 68 62 55
-0.1320643 -3.124066 3.666635 182 188 189
-0.1965116 -3.056807 3.66859 192 197 195
-0.2604235 -2.990627 3.671149 206 207 208
-0.3230935 -2.924151 3.671772 196 193 193
-0.3831038 -2.855455 3.666356 151 141 140
-0.4378532 -2.781792 3.648308 209 228 233
-0.8759815 -3.017324 4.487897 74 71 64
-0.953059 -2.939029 4.492794 79 75 69
-1.027143 -2.859342 4.492214 81 75 68
-1.104683 -2.784259 4.501534 90 84 77
-1.178397 -2.707184 4.503595 78 74 68
-1.25137 -2.630942 4.505708 70 64 55
-1.323409 -2.555388 4.50745 44 42 36
-1.394493 -2.480524 4.508797 56 53 50
-1.464707 -2.406405 4.509923 82 78 75
-1.532027 -2.332118 4.507159 121 119 115
-1.60239 -2.260344 4.511272 127 124 121
-1.670351 -2.188588 4.512344 125 123 117
-1.740731 -2.118586 4.518593 123 121 115
-1.806611 -2.048035 4.518449 118 118 115
-1.873356 -1.978652 4.520802 116 115 111
-1.944017 -1.910893 4.530084 121 118 114
1.196591 -4.418714 3.328823 172 171 171
1.134466 -4.40217 3.38559 154 157 157
0.8443757 -4.917376 4.312543 114 111 101
0.7511672 -4.833864 4.332147 107 104 94
0.6580505 -4.744792 4.345425 118 114 105
0.5655082 -4.651655 4.353467 106 100 91
0.4737496 -4.561635 4.364043 115 109 100
0.3825935 -4.474062 4.376623 116 110 101
0.2923962 -4.382881 4.38401 114 105 93
0.2230025 -3.511472 3.494542 255 254 255
-0.0495671 -3.981017 4.349262 111 101 91
-0.1332533 -3.891879 4.351045 93 85 76
-0.2161604 -3.804447 4.35379 82 75 66
-0.200821 -3.204901 3.66541 91 94 95
-0.2662287 -3.137635 3.669487 132 135 136
-0.3308508 -3.070741 3.673029 182 184 186
-0.3937415 -3.002678 3.673168 210 207 209
-0.4545705 -2.933471 3.669531 181 170 166
-0.5088633 -2.857503 3.650424 205 215 213
-0.9108787 -3.046864 4.34892 129 122 120
-0.983359 -2.967891 4.348485 102 96 92
-1.058688 -2.893349 4.356452 58 60 59
-1.133667 -2.819554 4.36483 71 71 68
-1.206242 -2.744865 4.369296 62 63 62
-1.278455 -2.671091 4.374346 71 74 70
-1.349534 -2.597667 4.378412 74 78 73
-1.419528 -2.524693 4.381669 76 78 74
-1.486434 -2.451184 4.380588 71 74 70
-1.553826 -2.379165 4.38176 66 67 61
-1.625966 -2.310226 4.392122 64 60 53
-1.701119 -2.242975 4.408021 55 50 43
-1.775026 -2.175557 4.422224 53 47 43
-1.843644 -2.106882 4.428616 52 48 41
-1.913609 -2.039231 4.437783 49 44 37
-1.993591 -1.974389 4.462223 42 40 34
1.140655 -4.508895 3.316371 178 177 176
1.075696 -4.485052 3.366272 120 121 120
1.015548 -4.503718 3.455187 140 143 143
0.7534412 -4.826708 4.095944 89 86 74
0.6646194 -4.742379 4.109958 88 84 74
0.5762557 -4.651504 4.116584 102 96 86
0.4887099 -4.564194 4.126003 90 84 75
0.4014928 -4.485391 4.143961 90 85 74
0.3142345 -4.410791 4.166371 101 94 83
0.2264266 -4.341572 4.195056 112 104 96
0.1427512 -4.241736 4.186884 94 87 76
0.1572914 -3.606025 3.503771 255 254 255
-0.09788668 -3.946623 4.154995 85 76 64
-0.1791614 -3.865786 4.16397 79 72 61
-0.2635102 -3.796464 4.188558 73 65 55
-0.2724434 -3.290459 3.668468 197 201 205
-0.3388357 -3.222809 3.674105 116 119 121
-0.4027674 -3.152315 3.673924 116 119 121
-0.4662092 -3.08324 3.674667 140 141 141
-0.526733 -3.01176 3.669523 176 164 161
-0.5837026 -2.937881 3.657769 114 110 106
-0.8834284 -3.006899 4.075685 131 118 113
-0.9542323 -2.936073 4.083081 143 131 126
-1.028557 -2.869592 4.099089 144 132 127
-1.101785 -2.802515 4.113209 140 130 125
-1.170164 -2.732126 4.118267 135 128 125
-1.241278 -2.664737 4.129622 139 135 131
-1.310041 -2.596419 4.137292 146 145 145
-1.373253 -2.52563 4.135974 140 143 143
-1.431549 -2.45351 4.127592 158 163 164
-1.490424 -2.383318 4.121898 155 166 168
-1.551648 -2.315578 4.121482 167 182 184
-1.60166 -2.244479 4.104619 179 195 201
-1.656896 -2.17711 4.097689 181 201 205
-1.708552 -2.109908 4.086805 193 213 219
1.152243 -4.644348 3.271163 192 189 189
1.083803 -4.601706 3.304415 181 179 177
1.015991 -4.568181 3.345955 169 170 169
0.9523844 -4.577293 3.424866 152 155 154
0.6714756 -4.765313 3.918923 102 97 86
0.5861897 -4.665906 3.914786 106 101 89
0.5022076 -4.574554 3.917149 93 86 75
0.1695303 -4.272782 3.985704 98 91 81
0.08426726 -4.214455 4.022003 99 92 81
0.01541144 -3.660089 3.551688 255 254 254
-0.1445541 -3.922911 3.98644 111 103 95
-0.2247993 -3.851831 4.004663 87 79 69
-0.3059563 -3.783897 4.026985 102 95 86
-0.3872002 -3.716067 4.049505 101 95 86
-0.3444625 -3.374914 3.666494 208 212 216
-0.4120976 -3.307621 3.67458 197 201 204
-0.4772066 -3.237198 3.676805 194 193 195
-0.5409097 -3.16647 3.677185 126 125 124
-0.601539 -3.093252 3.671732 126 121 118
-0.6622273 -3.022606 3.668878 146 132 128
-0.8757235 -2.990111 3.871615 145 132 127
-0.9355525 -2.915172 3.863587 94 83 81
-1.008928 -2.855159 3.885156 144 131 127
-1.078386 -2.791613 3.898937 146 135 132
-1.142265 -2.724098 3.902675 139 133 128
-1.207351 -2.658551 3.909676 150 146 142
-1.27154 -2.593236 3.915922 150 150 147
-1.334342 -2.527918 3.92064 153 156 154
-1.39062 -2.459904 3.915528 114 119 121
-1.447791 -2.393767 3.913247 161 174 175
-1.50278 -2.32784 3.908773 175 189 190
-1.555892 -2.262408 3.902724 181 198 201
-1.609382 -2.198417 3.89851 183 201 204
-1.661188 -2.135012 3.893021 191 211 215
-1.717726 -2.074195 3.895284 185 209 214
-1.777736 -2.015059 3.90302 187 212 218
1.02489 -4.689785 3.287115 187 184 182
0.9560504 -4.65694 3.328982 175 174 173
0.8889806 -4.652695 3.395496 157 160 160
0.6838019 -4.952069 3.888458 179 176 166
0.597523 -4.858168 3.892056 182 175 164
0.512291 -4.765106 3.895333 188 178 166
0.4282419 -4.669468 3.894979 197 186 172
0.3453048 -4.576598 3.896024 203 190 179
0.2634559 -4.485189 3.897279 203 190 179
0.1826629 -4.395139 3.898685 198 187 176
0.102702 -4.307635 3.901577 200 185 175
0.02234662 -4.228354 3.912503 199 182 170
-0.05157614 -3.741888 3.539306 255 254 255
-0.2016143 -3.947138 3.887119 198 187 174
-0.2833811 -3.886214 3.916541 195 186 173
-0.3607479 -3.812248 3.929254 193 184 172
-0.4455023 -3.75711 3.967175 148 131 117
-0.4227605 -3.471057 3.678184 209 212 215
-0.4869795 -3.394107 3.674321 152 152 152
-0.5530799 -3.323359 3.678184 152 152 154
-0.6165683 -3.250273 3.677135 212 209 208
-0.6776455 -3.175919 3.672378 171 160 157
-0.7401348 -3.105889 3.673113 117 103 98
-0.8984967 -3.007979 3.748709 75 69 60
-0.9558718 -2.934263 3.740656 83 77 70
-1.014072 -2.863562 3.736264 83 78 69
-1.070927 -2.793533 3.731081 88 82 73
-1.127306 -2.72492 3.72671 88 83 74
-1.184786 -2.658752 3.725762 82 75 66
-1.243196 -2.594534 3.727599 88 83 71
-1.300831 -2.530921 3.729181 83 76 67
-1.358998 -2.468652 3.732568 86 83 73
-1.415146 -2.406233 3.733695 70 64 60
-1.472307 -2.345272 3.737238 84 85 82
-1.528806 -2.28483 3.740566 155 165 164
-1.586507 -2.225638 3.746315 169 188 188
-1.643853 -2.166943 3.752152 190 208 207
-1.701244 -2.108855 3.758599 124 140 142
-1.763226 -2.052616 3.771581 141 161 163
0.9657215 -4.784899 3.273775 189 186 184
0.8956853 -4.752516 3.315887 175 172 172
0.8259493 -4.738672 3.373883 125 126 127
0.7557929 -4.752222 3.456217 148 149 147
0.3514674 -4.795568 3.900397 195 184 173
0.02333158 -4.422544 3.90449 197 183 173
-0.05678916 -4.336298 3.90971 199 184 174
-0.1221602 -3.833823 3.536715 255 254 255
-0.2665781 -4.001922 3.828611 199 190 178
-0.3563485 -3.964848 3.88646 188 177 163
-0.43455 -3.892292 3.901704 160 149 136
-0.5167683 -3.829836 3.929802 163 146 132
-0.4996477 -3.562081 3.67883 135 138 140
-0.5633596 -3.482028 3.672968 138 134 132
-0.6297355 -3.409712 3.676537 134 127 123
-0.6934571 -3.335132 3.675462 146 137 135
-0.7563981 -3.261695 3.674601 144 131 127
-0.8179036 -3.188469 3.672482 186 153 143
-1.025172 -3.14124 3.839547 194 185 173
-1.077479 -3.056717 3.818319 204 193 182
-1.130267 -2.976095 3.800982 218 209 198
-1.180998 -2.896645 3.7826 221 212 202
-1.228011 -2.817105 3.760403 223 216 205
-1.277447 -2.742368 3.744836 226 218 208
-1.327423 -2.670406 3.732232 225 220 209
-1.3788 -2.601415 3.72363 222 216 207
-1.431995 -2.535211 3.71929 223 218 209
-1.485839 -2.470749 3.717122 221 216 206
-1.540207 -2.407749 3.716758 221 215 204
-1.5931 -2.345148 3.715259 126 118 107
-1.644616 -2.283061 3.712826 112 108 101
-1.697593 -2.222593 3.713272 113 109 99
-1.747193 -2.161882 3.710114 108 106 94
-1.807081 -2.105313 3.720912 104 101 91
0.9055874 -4.883718 3.261523 199 196 196
0.8340119 -4.848409 3.301375 182 179 178
0.7621872 -4.827298 3.353156 174 171 171
0.6894525 -4.828176 3.42392 155 156 155
-0.1944214 -3.927731 3.533675 255 254 255
-0.4335247 -4.053946 3.867836 183 172 161
-0.5117067 -3.979595 3.881905 190 181 169
-0.6402243 -3.56955 3.668057 184 184 187
-0.7073316 -3.496609 3.672623 193 191 192
-0.7717687 -3.421364 3.672721 136 125 123
-0.8345553 -3.345958 3.671097 136 119 116
-0.8979146 -3.273501 3.672452 126 105 99
-1.132524 -3.252626 3.881181 186 177 165
-1.198242 -3.178199 3.883186 202 192 178
-1.260585 -3.102147 3.880602 219 212 201
-1.319831 -3.02525 3.874341 221 214 203
-1.375804 -2.947759 3.864439 221 213 203
-1.431103 -2.871982 3.8553 210 203 191
-1.485435 -2.797595 3.846374 224 217 207
-1.537618 -2.723786 3.835853 219 212 202
-1.589341 -2.651671 3.826285 215 210 201
-1.644471 -2.583219 3.823013 219 214 203
-1.697384 -2.515017 3.817813 220 215 206
-1.746719 -2.446588 3.80898 214 208 199
-1.796158 -2.379764 3.801569 220 217 207
-1.844418 -2.313908 3.793819 223 217 208
-1.894433 -2.25005 3.789405 217 214 202
-1.949493 -2.188956 3.792124 212 207 196
0.8439381 -4.981253 3.246673 211 210 210
0.7709794 -4.942873 3.284254 182 177 177
0.6976998 -4.921392 3.335264 176 173 173
0.6227835 -4.906912 3.393228 159 160 161
-0.2672828 -4.020098 3.526389 255 254 255
-0.7185987 -3.658628 3.662451 155 154 155
-0.7875028 -3.586779 3.670275 192 188 190
-0.8518283 -3.509465 3.669622 195 183 181
-0.9144089 -3.43201 3.667247 192 169 164
-0.9790878 -3.359571 3.670709 128 108 103
-1.250725 -3.375582 3.934125 165 162 154
-1.321823 -3.302447 3.942976 204 194 185
-1.386056 -3.223873 3.941259 220 211 201
-1.4446 -3.142179 3.931859 226 217 207
-1.50226 -3.062144 3.922933 227 219 209
-1.558326 -2.983134 3.91333 228 222 211
-1.614532 -2.906393 3.905621 229 222 211
-1.669206 -2.830604 3.897236 227 222 212
-1.725754 -2.757838 3.892932 225 219 210
-1.781571 -2.686222 3.888846 224 219 210
-1.836862 -2.615813 3.885211 222 219 209
-1.889576 -2.545574 3.879329 211 206 195
-1.942708 -2.47698 3.875111 219 216 204
-1.992882 -2.408519 3.868263 220 214 205
-2.039847 -2.340288 3.858629 212 207 196
-2.094357 -2.276073 3.859086 215 210 199
0.7067842 -5.03703 3.265494 188 183 184
0.6321711 -5.018415 3.318054 180 177 177
0.5556489 -4.997057 3.370294 163 162 161
-0.8032538 -3.757562 3.666455 179 178 179
-0.8712882 -3.681791 3.671213 147 142 140
-0.9368443 -3.604173 3.672416 123 115 113
-1.000309 -3.525804 3.67121 196 173 167
-1.067857 -3.454872 3.67909 180 153 142
-1.740473 -3.136961 4.042699 199 191 187
-1.787189 -3.047114 4.018202 205 199 194
-1.841232 -2.965327 4.006125 208 201 196
-1.898143 -2.887547 3.999536 212 206 201
-1.955442 -2.811785 3.994772 212 208 202
-2.014998 -2.738814 3.994062 215 211 205
-2.066252 -2.66311 3.983976 213 209 203
-2.11383 -2.587559 3.970739 209 205 197
-2.163397 -2.51474 3.961273 199 194 187
-2.207772 -2.441577 3.946946 195 187 180
-2.263727 -2.374278 3.947204 217 211 200
0.641436 -5.127858 3.243154 200 197 197
0.565489 -5.114687 3.298848 183 178 176
0.4875826 -5.091089 3.348977 174 174 171
0.4067894 -5.094176 3.42009 146 147 146
-0.8879749 -3.855246 3.665546 200 201 204
-0.9557783 -3.776889 3.669047 189 186 186
-1.020871 -3.696586 3.668882 147 130 131
-1.086166 -3.618872 3.670688 173 153 149
-1.152001 -3.543808 3.674793 114 99 96
-1.909571 -3.896791 4.566495 195 192 186
-1.985376 -3.797826 4.562524 210 207 203
0.4977365 -5.21139 3.278565 189 184 183
0.4185036 -5.186801 3.327549 173 170 168
0.3362855 -5.182933 3.392589 151 153 151
-1.039023 -3.86912 3.660524 180 175 177
-1.10669 -3.790877 3.664778 199 195 197
-1.172485 -3.711971 3.667058 179 164 160
-1.235926 -3.632085 3.666759 151 129 123
-2.007934 -3.994934 4.539521 198 196 190
-2.079911 -3.891288 4.530641 213 210 206
-2.154362 -3.792812 4.527187 219 216 212
-2.224858 -3.693453 4.519903 221 218 214
-2.293269 -3.595069 4.511545 222 220 216
-2.35859 -3.497009 4.500862 223 221 217
-2.426712 -3.403456 4.495439 225 222 218
0.2650516 -5.272449 3.364677 161 162 159
-1.056756 -4.046115 3.649914 152 151 151
-1.12636 -3.966856 3.655812 116 113 113
-1.194075 -3.886709 3.659661 173 166 166
-1.256966 -3.802089 3.65691 184 169 167
-1.31725 -3.716789 3.651672 167 147 142
-1.222733 -4.077394 3.662351 214 219 220
-1.288084 -3.991221 3.661607 143 138 137
-1.349304 -3.902129 3.655988 190 183 179
2.293993 -3.003367 4.477484 158 154 148
2.21758 -2.939878 4.482282 163 157 150
2.140049 -2.875491 4.484177 167 159 153
0.5166231 -1.527332 4.519761 159 157 151
0.4464761 -1.46907 4.522215 169 167 160
0.3766107 -1.411059 4.522847 176 174 167
0.3071617 -1.353428 4.520292 183 181 173
0.2381488 -1.296158 4.517936 186 182 175
0.169745 -1.239421 4.512829 187 183 176
0.1016796 -1.182941 4.510084 188 184 176
0.034062 -1.126833 4.507278 192 188 180
-0.03310862 -1.071097 4.504418 194 191 183
-0.1001246 -1.015467 4.503663 196 192 186
-0.1665441 -0.9603486 4.501369 200 197 191
-0.2330482 -0.9051295 4.50199 194 192 185
-0.2995518 -0.8498937 4.504241 194 192 186
-0.3656279 -0.7950224 4.50562 193 191 185
-0.4309952 -0.7407594 4.505062 192 188 182
-0.4962232 -0.6866032 4.505345 191 187 182
-0.5607343 -0.6330586 4.50405 190 186 180
