ply
format ascii 1.0
comment author: PIX4Dcatch
element vertex 1217
property float x
property float y
property float z
property uchar red
property uchar green
property uchar blue
end_header
2.715028 -0.4142557 2.350662 167 144 121
2.634508 -0.4337668 2.442393 151 128 107
2.548339 -0.4513924 2.540061 130 108 90
2.455819 -0.4670798 2.644433 152 128 105
2.358889 -0.4782396 2.752973 155 133 112
2.251079 -0.4899558 2.87359 150 128 106
2.128681 -0.5037776 3.010607 150 129 105
1.98313 -0.5242639 3.174161 148 127 105
1.808099 -0.5527484 3.371431 152 133 111
1.598272 -0.5887538 3.608202 151 131 113
1.349307 -0.630296 3.888957 156 140 122
0.8489246 -0.6492717 4.443362 171 158 144
2.425991 0.3838252 2.547149 255 254 255
0.9615607 1.175585 4.040077 149 109 75
0.9394641 1.406741 4.029072 151 111 80
1.197193 1.574792 3.719306 119 97 79
1.249445 1.662183 3.648348 57 44 33
1.377841 1.72248 3.497611 119 101 80
1.354128 1.822109 3.508507 125 107 89
1.288633 1.93746 3.563048 121 103 84
0.6516173 2.396822 4.194877 60 33 12
0.7919767 2.444026 4.032957 55 35 19
0.9738696 2.459759 3.830074 108 83 71
1.149102 2.465702 3.63603 170 148 120
1.314195 2.464707 3.454223 24 16 8
1.432558 2.479856 3.32145 47 38 30
1.523637 2.503613 3.217433 53 44 34
2.748909 -0.4012129 2.229254 185 167 144
2.672604 -0.4212005 2.311805 170 149 127
2.590787 -0.4398543 2.39992 151 130 106
2.501216 -0.4586872 2.496156 146 122 103
2.407328 -0.4734453 2.596313 151 128 107
2.305443 -0.4869203 2.704637 151 129 109
2.196286 -0.4974895 2.820135 150 129 105
2.069767 -0.512256 2.954365 143 122 98
1.921784 -0.5319597 3.111719 145 124 100
1.742561 -0.5605685 3.302973 149 128 106
1.529868 -0.595399 3.53007 152 133 113
1.271697 -0.6393595 3.805967 153 134 117
2.341993 0.3630134 2.544152 255 254 255
0.8085661 1.401647 3.995808 135 97 73
1.061566 1.576905 3.706414 99 78 65
1.123554 1.664775 3.629042 47 37 29
1.244198 1.730711 3.493582 130 111 89
1.205266 1.837242 3.518901 128 110 88
1.115582 1.963087 3.594434 113 96 74
0.5299606 2.399028 4.143174 67 41 23
0.6924701 2.439876 3.96761 79 54 31
0.8887081 2.452471 3.760894 162 142 116
1.067559 2.460053 3.573055 177 155 126
1.230139 2.463922 3.402739 177 157 127
1.364287 2.472888 3.261377 61 52 42
1.459646 2.496153 3.15846 53 42 32
2.779298 -0.3896113 2.120055 198 185 163
2.70723 -0.4094599 2.194041 189 174 151
2.629674 -0.4286149 2.273363 176 159 136
2.546965 -0.4460373 2.357548 129 107 89
2.455995 -0.4640969 2.449992 145 121 100
2.358471 -0.4801626 2.54865 147 124 102
2.254801 -0.4930896 2.652965 146 124 102
2.141493 -0.5050233 2.76668 148 127 105
2.010165 -0.5212433 2.898802 141 120 96
1.858773 -0.540907 3.051242 142 121 98
1.676349 -0.5689171 3.235511 147 126 104
1.460193 -0.6030129 3.453977 147 126 105
1.19824 -0.6460692 3.718964 149 129 111
2.25215 0.3405429 2.542741 255 254 255
0.9213915 1.578843 3.691678 81 64 50
1.021404 1.660777 3.581641 77 62 48
1.101038 1.740128 3.492115 131 112 90
1.054024 1.851272 3.523582 130 112 91
0.9555435 1.981821 3.60334 123 106 85
0.4133964 2.39823 4.083335 70 43 21
0.6082129 2.428613 3.886484 134 110 85
0.8020432 2.445665 3.692413 174 150 121
0.9824584 2.455903 3.512537 184 160 129
1.144197 2.463606 3.35148 189 165 136
1.291536 2.468317 3.205075 32 24 16
1.392597 2.490441 3.102098 58 49 39
2.740303 -0.396799 2.085778 204 190 170
2.667858 -0.4150513 2.156013 194 180 159
2.58753 -0.4351215 2.23387 180 164 140
2.501013 -0.4543146 2.317418 166 146 126
2.409828 -0.4704447 2.404951 148 124 103
2.310996 -0.4856498 2.499537 143 119 98
2.204032 -0.4994138 2.60156 144 120 99
2.0867 -0.5125569 2.713225 143 122 100
1.950488 -0.5302406 2.843166 140 119 95
1.795741 -0.5498527 2.990728 140 119 95
1.611259 -0.576565 3.167069 141 120 96
1.389498 -0.6113721 3.379387 143 121 101
1.125782 -0.6523974 3.631827 145 125 107
2.160648 0.3180228 2.538191 255 254 255
0.7683744 1.582156 3.682474 64 46 35
0.9101021 1.658329 3.539918 109 93 74
0.9433541 1.751837 3.496845 130 111 88
0.8993719 1.864558 3.52373 127 110 87
0.2977221 2.396338 4.02006 66 41 19
0.5181606 2.419776 3.810428 162 140 112
0.7149475 2.438805 3.62353 183 159 130
0.9000683 2.450077 3.448555 190 166 135
1.062288 2.460662 3.295137 195 172 141
1.205453 2.470755 3.159644 198 173 146
1.32209 2.486551 3.048292 45 37 27
2.702452 -0.4026125 2.050108 206 196 176
2.627592 -0.4215749 2.118869 198 187 163
2.54534 -0.4416348 2.19433 152 137 116
2.45858 -0.4590906 2.273481 173 156 135
2.363661 -0.4767922 2.359911 159 138 114
2.264156 -0.4906429 2.449953 142 118 97
2.154625 -0.5046517 2.548918 140 117 95
2.031907 -0.5200907 2.65977 142 119 95
1.892059 -0.5382742 2.786165 141 118 95
1.732046 -0.5592417 2.930804 141 118 94
1.543631 -0.5859334 3.101356 139 116 93
1.320248 -0.6189303 3.303722 140 119 95
1.05119 -0.66013 3.547641 141 120 98
2.06229 0.293561 2.535468 255 254 255
2.041211 0.3607386 2.546157 255 254 255
0.5234282 1.486197 3.759721 127 102 79
0.6113682 1.584992 3.669792 50 41 31
0.7711687 1.661214 3.518733 126 107 84
0.7803831 1.763226 3.498348 132 112 90
0.7300608 1.880282 3.529047 121 103 82
0.1939285 2.389299 3.944386 116 95 75
0.42905 2.410385 3.733018 169 147 119
0.6303372 2.430613 3.551805 186 162 133
0.8160086 2.444774 3.385189 194 170 139
0.9793842 2.457823 3.23851 198 174 143
1.12127 2.471519 3.110842 200 178 147
1.249942 2.483308 2.995139 41 35 25
2.664014 -0.4090228 2.01493 208 198 178
2.58837 -0.426968 2.080604 194 186 164
2.504782 -0.446499 2.153141 189 177 155
2.414902 -0.4650961 2.230869 181 165 147
2.318822 -0.4819521 2.313619 164 144 125
2.216735 -0.4962109 2.401132 148 125 102
2.104729 -0.5103713 2.496982 136 113 92
1.977743 -0.5271449 2.605731 139 115 94
1.8342 -0.5458986 2.728637 139 116 93
1.669257 -0.5679824 2.869926 138 115 91
1.475559 -0.5955791 3.036034 136 113 90
1.249015 -0.6277731 3.230298 137 114 91
0.9764287 -0.6680933 3.464223 138 114 93
1.948673 0.3405599 2.532736 255 254 255
0.3820603 1.482456 3.722871 97 79 58
0.4704115 1.583839 3.637131 50 39 28
0.6112132 1.667401 3.509254 127 108 86
0.6077151 1.77532 3.500076 126 108 85
0.5407753 1.899568 3.542454 122 102 81
0.1101084 2.37464 3.851525 144 123 99
0.3412163 2.400356 3.654146 176 153 122
0.5466485 2.421869 3.478848 191 167 136
0.7323401 2.439005 3.320653 197 173 141
0.8977153 2.453993 3.179798 199 177 144
1.043698 2.468323 3.055336 204 183 151
1.167065 2.485587 2.949577 203 181 149
2.625442 -0.4155115 1.979743 208 200 178
2.547804 -0.4337106 2.043551 173 162 141
2.463408 -0.4521878 2.112777 193 183 164
2.371388 -0.470951 2.18811 183 169 151
2.274059 -0.4871016 2.2674 168 152 130
2.169454 -0.5017152 2.352328 150 129 107
2.053294 -0.5173637 2.446576 133 110 89
1.923712 -0.5341214 2.551641 133 109 88
1.776601 -0.553357 2.670941 136 113 90
1.606662 -0.5765887 2.80886 134 111 87
1.407068 -0.6054699 2.971014 132 109 84
1.180595 -0.6350295 3.154667 134 111 86
0.9028461 -0.6755392 3.38035 136 113 90
0.5234439 -0.74656 3.690283 134 111 88
1.844705 0.317186 2.5249 255 254 255
0.1070242 1.371813 3.798974 83 59 47
0.2261353 1.479944 3.692626 82 63 49
0.3420901 1.579709 3.589675 79 67 54
0.4303293 1.676437 3.509139 124 104 82
0.4055521 1.792546 3.516653 127 109 88
0.2539945 2.39 3.574501 182 159 128
0.4690788 2.410476 3.400885 195 171 140
0.6531172 2.431013 3.25201 200 177 142
0.8190389 2.448422 3.117908 203 182 150
0.9682343 2.46374 2.997359 203 182 147
1.094786 2.481664 2.894587 206 182 148
2.5843 -0.4245693 1.946622 200 192 174
2.507142 -0.4404848 2.006444 201 195 176
2.421336 -0.4585306 2.073004 197 187 168
2.330337 -0.4746061 2.14329 187 177 157
2.230416 -0.4913492 2.220377 173 160 139
2.121253 -0.5080191 2.304435 158 141 120
2.003036 -0.5234547 2.395205 138 116 95
1.86904 -0.54159 2.498155 130 107 83
1.719461 -0.5605239 2.612947 132 109 83
1.544923 -0.58464 2.747092 130 107 84
1.341256 -0.6137045 2.903718 132 108 85
1.11063 -0.6432779 3.080746 130 107 82
0.8284278 -0.683566 3.297769 133 108 83
0.4562056 -0.747894 3.585126 132 109 85
1.73247 0.2917134 2.518919 255 254 255
0.07038021 1.476533 3.656609 68 50 41
0.24224 1.6853 3.50624 139 120 96
0.1696825 2.37849 3.492523 198 173 139
0.3902159 2.399633 3.323948 196 173 139
0.5729403 2.423302 3.183665 202 178 145
0.7394848 2.443023 3.055988 202 179 146
0.8930011 2.458791 2.938536 205 181 148
1.02334 2.477051 2.838335 210 187 154
2.541896 -0.4347109 1.914146 192 183 161
2.465021 -0.448596 1.970372 204 198 179
2.379232 -0.4648731 2.033189 199 191 172
2.288167 -0.4793456 2.09961 191 181 161
2.186165 -0.4961948 2.174068 177 165 146
2.072585 -0.5147107 2.256955 165 149 129
1.950058 -0.5316375 2.346087 147 128 107
1.813608 -0.5496025 2.445268 127 104 81
1.661777 -0.5680933 2.55549 128 105 82
1.484085 -0.5921409 2.684707 128 105 82
1.275203 -0.6221246 2.836764 129 107 81
1.039573 -0.6522058 3.007947 131 106 83
0.7578776 -0.6896852 3.212736 135 109 87
0.3912604 -0.7485098 3.480192 134 108 86
1.602032 0.2611887 2.521456 213 203 197
-0.1573403 2.336788 3.586787 168 143 109
0.08898354 2.365676 3.408072 198 172 138
0.307884 2.390139 3.249366 198 175 140
0.4961002 2.414058 3.112638 204 180 147
0.6639888 2.435581 2.99066 205 181 148
0.8180418 2.453483 2.878906 208 185 152
0.9547968 2.470768 2.779571 210 186 153
2.499859 -0.4442687 1.880928 213 208 194
2.424043 -0.4555148 1.933175 205 199 178
2.337432 -0.4709157 1.993081 199 193 174
2.244602 -0.4853355 2.057108 191 183 164
2.140359 -0.5023744 2.12908 183 173 153
2.025544 -0.5201374 2.208265 168 157 135
1.898642 -0.5386229 2.295686 155 138 114
1.757942 -0.5577592 2.392494 135 114 92
1.604453 -0.575442 2.497827 125 101 78
1.423439 -0.5995643 2.62233 129 103 81
1.209206 -0.6305434 2.769893 130 105 80
0.9673984 -0.6617885 2.936127 129 106 83
0.6825745 -0.6984136 3.131917 134 108 85
0.3251369 -0.7500896 3.378118 130 105 82
1.460866 0.2280378 2.525399 255 254 255
-0.2401817 2.322173 3.49456 186 160 130
0.005098343 2.354048 3.325923 198 174 139
0.2254009 2.380623 3.174637 201 178 143
0.4200692 2.404431 3.040926 205 181 148
0.5888629 2.427856 2.924747 206 183 148
0.7465005 2.446395 2.816535 210 186 153
0.8879457 2.46353 2.719396 210 186 153
2.459266 -0.4522519 1.84628 219 217 199
2.381782 -0.4635464 1.896754 206 202 185
2.295465 -0.4770898 1.953058 202 195 178
2.202545 -0.4900599 2.013539 196 188 169
2.095759 -0.5075958 2.083258 185 178 157
1.979 -0.5252364 2.159364 176 166 146
1.850749 -0.543063 2.242836 162 149 127
1.704305 -0.5645 2.338236 145 126 103
1.543939 -0.5848856 2.442455 125 102 79
1.363702 -0.6064762 2.559483 125 102 79
1.144525 -0.638237 2.702238 126 102 77
0.8985975 -0.6695687 2.862069 130 105 81
0.608345 -0.7066788 3.050717 130 105 81
0.2497883 -0.7563422 3.284069 130 105 81
-0.3237593 2.307923 3.403263 189 164 131
-0.07556796 2.341332 3.241817 197 172 141
0.1480212 2.36916 3.096557 202 178 145
0.3450606 2.394366 2.968491 206 180 146
0.51652 2.418853 2.856844 209 184 149
0.6784823 2.437619 2.751734 210 186 151
0.8213892 2.456074 2.658837 210 186 151
2.419382 -0.4594516 1.81091 232 230 214
2.341659 -0.4695473 1.858658 215 213 196
2.252905 -0.4837537 1.913386 203 197 178
2.15766 -0.4971605 1.971978 199 192 175
2.051372 -0.5126935 2.037406 191 183 165
1.932227 -0.5305691 2.110783 184 174 154
1.800567 -0.5492289 2.191785 170 158 139
1.650053 -0.5716853 2.284472 155 140 115
1.484646 -0.5934992 2.386114 138 116 94
1.301666 -0.6148295 2.498344 126 103 78
1.079242 -0.6463281 2.635187 127 102 77
0.8302348 -0.6771948 2.788052 130 105 81
0.5329876 -0.7155924 2.970649 131 106 81
-0.4086249 2.294176 3.313117 191 166 131
-0.1542771 2.328037 3.156797 188 162 130
0.07107067 2.357578 3.018334 203 179 146
0.2723668 2.383405 2.894693 204 181 148
0.4468493 2.408718 2.7873 209 185 150
0.610563 2.428777 2.686814 209 184 149
0.7570114 2.447544 2.596862 210 184 148
2.379527 -0.4665416 1.775349 245 241 226
2.29967 -0.4771675 1.821694 230 227 211
2.210813 -0.4899854 1.873332 211 206 189
2.113935 -0.5032818 1.929583 200 194 175
2.005467 -0.5190052 1.992622 195 187 169
1.886896 -0.5348979 2.061443 187 181 162
1.751468 -0.5546763 2.140162 179 170 150
1.598628 -0.5770161 2.229003 164 151 130
1.426934 -0.6011031 2.328732 150 131 109
1.238871 -0.6236397 2.4377 125 102 79
1.01515 -0.6537974 2.567563 126 101 77
0.7600677 -0.6858417 2.715466 129 105 80
0.4603047 -0.7232696 2.889261 129 103 81
-0.4813507 2.276946 3.216584 194 169 134
-0.2321045 2.314558 3.071623 199 175 142
-0.003860712 2.345336 2.939134 203 177 145
0.1997483 2.372454 2.820968 205 182 147
0.3789499 2.397899 2.716856 209 184 147
0.5454028 2.418746 2.620347 209 184 149
0.6909802 2.439745 2.535747 211 186 151
2.337797 -0.4752433 1.740752 251 249 232
2.258479 -0.4840131 1.784067 243 240 225
2.167042 -0.4975827 1.834225 225 220 205
2.069661 -0.5098315 1.8875 207 201 185
1.959563 -0.5253167 1.947839 199 193 176
1.837717 -0.5420796 2.014592 192 186 169
1.702491 -0.5601 2.088637 186 178 161
1.545477 -0.5835453 2.174777 172 162 142
1.370917 -0.6076815 2.270416 159 143 122
1.176853 -0.6319908 2.376578 139 118 96
0.9511037 -0.6613016 2.500141 125 100 78
0.6905446 -0.6942034 2.642695 128 102 80
0.3845325 -0.7325299 2.810097 129 104 79
-0.55351 2.259839 3.120766 197 172 139
-0.3082173 2.300655 2.985923 198 173 138
-0.07911277 2.333278 2.860337 193 168 133
0.1252737 2.362215 2.748311 205 180 144
0.3077228 2.388429 2.648285 208 182 148
0.4791992 2.409186 2.554527 209 184 149
0.6270866 2.43096 2.473414 211 186 150
2.297025 -0.4829639 1.705337 254 251 237
2.214979 -0.492759 1.747614 251 249 232
2.122567 -0.5056795 1.795347 240 237 221
2.025114 -0.5165727 1.845519 220 216 201
1.913587 -0.5316812 1.903095 202 198 183
1.789344 -0.5486738 1.967247 196 192 175
1.652051 -0.5665631 2.038082 190 183 168
1.492563 -0.5899575 2.120526 181 173 155
1.313584 -0.6151037 2.21298 166 154 135
1.114446 -0.6405712 2.315695 150 132 109
0.885659 -0.6696144 2.433691 130 104 83
0.6190922 -0.7035898 2.571179 128 102 78
0.3089101 -0.7417697 2.731082 131 104 81
-0.3838165 2.286729 2.900413 201 175 140
-0.1579006 2.322445 2.783474 201 173 140
0.05029106 2.352154 2.675903 205 180 145
0.2357495 2.379229 2.580041 208 182 148
0.4109054 2.400486 2.489764 208 183 148
0.5637751 2.421926 2.4108 211 186 151
2.256558 -0.4903243 1.669565 255 254 239
2.1709 -0.5018622 1.711197 254 253 238
2.078 -0.5137607 1.756316 251 249 232
1.978626 -0.5247629 1.804482 237 233 217
1.867682 -0.537993 1.85831 217 215 200
1.743238 -0.5536985 1.918735 204 199 184
1.602933 -0.5721757 1.986905 198 194 177
1.441354 -0.5953408 2.065516 190 186 167
1.258059 -0.6214732 2.154684 179 171 150
1.053786 -0.6481731 2.253923 163 148 125
0.8218715 -0.6770809 2.366511 141 118 95
0.5505183 -0.7115664 2.498283 130 105 80
0.233439 -0.7509885 2.652212 132 105 81
-0.4591835 2.272868 2.815239 201 176 141
-0.2350957 2.311104 2.705877 205 179 145
-0.02626944 2.342627 2.604191 208 181 147
0.1649354 2.369576 2.511192 208 183 146
0.3422818 2.39189 2.425083 211 185 151
0.4987936 2.413601 2.348978 212 187 152
2.215938 -0.4977371 1.633705 255 255 242
2.127676 -0.5101354 1.674072 255 254 241
2.033503 -0.5217031 1.717057 255 254 239
1.933224 -0.532064 1.762729 249 245 229
1.820033 -0.5455498 1.814373 234 230 214
1.694819 -0.5603558 1.871498 217 214 200
1.553436 -0.5780825 1.93605 206 202 186
1.389793 -0.6010103 2.01089 199 195 178
1.203857 -0.6271241 2.095928 190 183 167
0.994853 -0.6548526 2.191433 174 163 140
0.7585218 -0.6843742 2.299331 154 135 111
0.4835944 -0.7187971 2.424854 134 107 83
0.1553824 -0.7614385 2.574785 133 106 82
0.2741597 0.1700512 2.473562 255 254 255
-0.5274494 2.257102 2.727406 205 177 144
-0.3097813 2.299009 2.627275 207 181 146
-0.1016076 2.332654 2.53184 196 165 127
0.09251571 2.360497 2.443028 210 183 149
0.2772717 2.381879 2.358763 213 186 150
0.4369984 2.403958 2.28573 214 189 154
2.172074 -0.507777 1.599182 255 255 242
2.087184 -0.5161198 1.635472 254 255 245
1.989791 -0.5289637 1.67726 255 255 242
1.88713 -0.5398281 1.721184 254 251 237
1.771689 -0.5535515 1.770646 244 242 226
1.645085 -0.567893 1.824857 232 229 215
1.50339 -0.5843776 1.885551 217 214 200
1.337067 -0.6074452 1.956969 207 203 187
1.147119 -0.6343064 2.038556 200 193 177
0.9326904 -0.6633452 2.130597 186 177 157
0.693434 -0.6926165 2.233148 167 150 129
0.4185605 -0.7251983 2.350916 147 122 98
0.08115602 -0.7701725 2.495709 131 103 80
-0.7182992 0.09130135 2.793276 159 131 101
-0.6023061 2.243407 2.643047 206 179 144
-0.386811 2.287691 2.549838 208 180 148
-0.1747067 2.321935 2.458535 209 180 147
0.01895523 2.351785 2.375237 213 186 150
0.2114434 2.372212 2.292879 214 189 154
0.3675482 2.397395 2.225683 214 188 152
2.143597 -0.5050341 1.557666 255 253 236
2.042562 -0.5253379 1.598612 255 254 239
1.943982 -0.5377553 1.638245 255 254 244
1.837302 -0.5502313 1.681093 255 255 242
1.720866 -0.5632097 1.727833 252 249 235
1.591785 -0.5777509 1.779655 241 238 224
1.450493 -0.5924851 1.836329 230 227 213
1.283346 -0.6145065 1.90357 217 212 199
1.088828 -0.6423923 1.98192 206 202 185
0.8680582 -0.673161 2.070805 195 189 170
0.620657 -0.7047677 2.17029 179 165 147
0.3467851 -0.7349017 2.28021 161 138 116
0.001141071 -0.7815404 2.419306 136 109 85
-0.359019 -0.8147444 2.563583 127 98 72
-0.4460118 2.271141 2.465637 208 181 146
-0.2444818 2.310182 2.384028 211 184 148
-0.05943656 2.344675 2.309152 211 186 149
0.1398783 2.36466 2.229239 215 190 155
0.2911546 2.393419 2.168003 216 192 158
3.23231 -0.3228444 2.954157 136 113 98
3.202955 -0.3127086 3.03304 141 119 100
2.583972 1.847891 3.688562 50 36 22
2.62625 1.878986 3.551302 80 65 51
2.640154 1.927546 3.486316 103 87 69
2.63477 1.99024 3.469292 108 90 73
2.625633 2.055671 3.461608 108 91 74
3.219573 -0.3397873 2.843921 138 116 100
3.192571 -0.326295 2.909426 139 117 100
3.161622 -0.3168797 2.987417 84 72 63
3.127377 -0.3087915 3.074834 133 113 95
3.088247 -0.3041793 3.176946 76 69 70
3.039461 -0.3103708 3.309999 87 82 81
2.974614 -0.3352771 3.494868 95 91 86
2.895234 -0.3711304 3.723754 129 122 112
2.805168 -0.4077256 3.981486 133 124 114
2.71728 -0.4243298 4.2238 146 141 130
2.411229 1.540258 4.095217 146 105 80
2.41036 1.619856 4.059263 117 79 57
2.529838 1.704874 3.69983 121 104 82
2.521728 1.777248 3.686655 77 61 47
2.514262 1.848546 3.672278 54 41 28
2.567561 1.874726 3.517584 97 81 64
2.574039 1.930623 3.473436 105 88 73
2.566771 1.995994 3.461385 107 90 74
2.553715 2.065914 3.462577 111 94 79
2.52164 2.153558 3.505955 104 88 74
2.179358 2.619231 4.194664 56 27 10
2.232167 2.633951 4.046785 60 32 14
3.18181 -0.3415855 2.798744 141 117 102
3.153962 -0.3276807 2.861766 85 69 63
3.122485 -0.3168081 2.935171 127 105 87
3.087601 -0.3073869 3.017698 80 71 66
3.045789 -0.3050189 3.120607 72 67 68
2.99223 -0.3159927 3.258704 88 83 82
2.920367 -0.3473704 3.451445 115 107 99
2.835524 -0.385401 3.679441 157 143 132
2.742384 -0.4198681 3.926473 137 127 117
2.650818 -0.4358865 4.161335 147 140 131
2.575829 -0.4164169 4.33909 163 157 152
2.517255 -0.367181 4.4627 170 169 159
2.373214 0.3130025 4.516381 143 133 118
2.35286 0.411782 4.522771 127 112 97
2.327063 0.5089408 4.543424 136 118 101
2.30559 0.6084003 4.552295 133 113 99
2.60874 0.855651 3.687789 96 58 50
2.214493 1.010373 4.598868 102 78 60
2.204129 1.111442 4.579394 81 54 42
2.19275 1.211571 4.562865 98 74 59
2.361272 1.276361 4.11481 166 126 97
2.35308 1.362949 4.096418 145 108 83
2.3162 1.45751 4.145794 72 45 32
2.325206 1.537494 4.087592 153 112 83
2.320307 1.620514 4.062609 118 81 56
2.455977 1.704753 3.687538 129 108 87
2.447637 1.778422 3.675298 71 55 42
2.445181 1.847699 3.65039 47 34 21
2.506105 1.871877 3.488072 99 82 67
2.502591 1.936435 3.467909 103 86 71
2.493168 2.004719 3.460772 101 84 69
2.475791 2.079324 3.470584 101 85 72
2.036673 2.606531 4.326492 58 29 10
2.10992 2.611951 4.141928 56 26 9
2.169012 2.623842 3.989664 52 22 3
3.116488 -0.3273572 2.81194 129 104 89
3.083671 -0.3169676 2.883873 96 80 70
3.047842 -0.3069909 2.96298 79 71 71
3.00529 -0.3032054 3.060297 78 71 70
2.943751 -0.3239942 3.212008 100 96 90
2.863248 -0.3636009 3.415657 155 141 123
2.777356 -0.3969825 3.62923 159 145 131
2.682048 -0.4285691 3.863936 157 148 136
2.58182 -0.450619 4.106096 151 146 139
2.494751 -0.4414764 4.304643 171 167 153
2.429631 -0.39605 4.437018 181 176 167
3.080149 0.471406 2.562756 255 254 255
2.274837 0.2879378 4.511091 160 147 134
2.251725 0.3874535 4.523239 153 138 124
2.224339 0.4861359 4.54567 140 123 106
2.200808 0.5870885 4.558192 138 120 103
2.531869 0.842995 3.68185 98 61 52
2.114629 0.9971588 4.587204 104 77 65
2.106423 1.099774 4.563414 82 55 43
2.088891 1.202141 4.561405 96 70 57
2.274374 1.268814 4.102455 166 127 95
2.26445 1.357228 4.088592 137 100 74
2.217858 1.455531 4.15582 45 18 8
2.235724 1.534868 4.081155 157 117 87
2.229176 1.620201 4.060732 112 77 52
2.380321 1.704472 3.67424 124 103 82
2.371302 1.779677 3.663791 65 48 35
2.374231 1.847069 3.628831 68 53 43
2.435382 1.874482 3.475255 99 83 66
2.424438 1.945507 3.471024 100 84 70
2.411705 2.017644 3.470488 98 81 66
2.388353 2.098205 3.491111 96 81 65
1.967344 2.594769 4.262204 44 15 4
2.046149 2.599019 4.077271 52 21 4
2.106266 2.613268 3.931593 68 44 29
3.108672 -0.3419047 2.704812 128 104 85
3.079082 -0.3277244 2.763681 128 106 90
3.045493 -0.3167119 2.83249 75 67 66
3.009227 -0.3054182 2.907017 73 67 64
2.965767 -0.3007827 2.999801 90 84 79
2.88117 -0.3542241 3.204803 152 135 120
2.803969 -0.3823077 3.383804 159 143 125
2.718422 -0.4094585 3.580608 161 150 135
2.621541 -0.4376876 3.8025 163 154 142
2.511215 -0.4669756 4.05407 160 152 144
2.413971 -0.4650414 4.264977 176 169 157
2.340833 -0.4246859 4.408411 188 184 175
3.048201 0.4122648 2.541955 255 254 255
3.034316 0.4573041 2.554592 255 254 255
2.170277 0.2607006 4.512022 166 156 142
2.144948 0.3614815 4.527801 159 145 130
2.116638 0.4621212 4.550125 149 131 114
2.091627 0.5648785 4.564441 144 126 107
2.452702 0.829953 3.675022 103 65 58
2.001239 0.9833628 4.597774 118 91 75
1.987283 1.088585 4.587067 87 58 44
1.970847 1.193417 4.581907 105 82 61
2.181986 1.261495 4.09576 169 128 99
2.169596 1.352027 4.087379 126 91 70
2.117713 1.452768 4.160971 69 43 27
2.141615 1.532668 4.077746 159 118 91
2.132229 1.620802 4.063763 99 67 45
2.302216 1.704326 3.661158 116 96 78
2.293632 1.780477 3.650107 52 38 27
2.331793 1.829052 3.548078 75 62 51
2.358754 1.87961 3.469655 94 79 59
2.342887 1.955102 3.474712 95 81 67
2.325512 2.03188 3.482553 94 80 64
1.897133 2.583732 4.199481 41 11 4
1.98151 2.586995 4.014552 56 30 12
2.038248 2.60759 3.883013 105 83 65
3.074476 -0.3383985 2.653459 126 103 82
3.042297 -0.3276187 2.715224 69 58 58
3.009568 -0.3132005 2.77678 74 65 63
2.975502 -0.2965048 2.840236 77 68 67
2.912205 -0.3217294 2.978703 146 126 107
2.819587 -0.3808707 3.189443 156 140 122
2.746706 -0.3972889 3.34426 159 145 129
2.661142 -0.4195254 3.527102 166 153 138
2.561017 -0.4469727 3.741583 159 150 138
2.444836 -0.4780932 3.99019 163 156 147
2.333269 -0.4875622 4.22146 176 168 158
2.250501 -0.4535041 4.378011 193 186 179
3.000901 0.3966593 2.534943 255 254 255
2.985797 0.4417904 2.549284 255 254 255
2.959492 0.4802738 2.588927 255 254 255
2.029821 0.3328879 4.5411 164 151 138
2.002802 0.4365625 4.558364 154 137 124
1.977495 0.5416424 4.571621 150 131 111
1.955091 0.6480162 4.578475 146 126 106
2.36548 0.8157117 3.679195 106 68 62
1.888637 0.9690798 4.596782 116 92 75
1.870621 1.076506 4.594293 90 59 44
1.852299 1.183756 4.592492 113 89 72
2.088477 1.253618 4.084699 167 127 95
2.06929 1.346997 4.089738 108 80 60
2.018669 1.448543 4.155972 77 51 38
2.045224 1.530031 4.071958 154 111 83
2.032573 1.620986 4.064536 77 50 36
2.2223 1.703959 3.646796 102 83 66
2.215644 1.780337 3.632463 53 40 33
2.275138 1.819645 3.49661 85 70 58
2.279522 1.884895 3.463803 96 80 62
2.255905 1.966399 3.482229 94 78 65
2.228562 2.051315 3.507012 93 77 61
1.798729 2.513685 4.215637 48 20 4
1.82498 2.574188 4.139915 31 7 2
1.918474 2.573658 3.949204 49 25 10
1.969066 2.602517 3.835349 116 96 79
3.039121 -0.3381285 2.607189 71 60 58
3.008953 -0.3220203 2.659544 72 62 60
2.978322 -0.3027572 2.711702 77 64 60
2.940204 -0.2916777 2.781032 117 99 86
2.833524 -0.3796093 3.015838 151 131 113
2.765602 -0.3950255 3.15143 157 140 123
2.689842 -0.4112273 3.302328 159 143 127
2.603887 -0.4295524 3.473512 160 147 135
2.502196 -0.4543791 3.677112 168 157 144
2.38017 -0.4873779 3.922529 174 165 153
2.254902 -0.506895 4.169541 176 168 162
2.159651 -0.4815626 4.343592 193 185 176
2.074549 -0.4358843 4.491196 206 203 191
2.934295 0.4247805 2.546738 255 254 255
2.913663 0.468365 2.571377 255 254 255
1.97622 0.09949712 4.496285 192 187 176
1.904541 0.3011315 4.564672 167 154 140
1.884316 0.4099991 4.566148 157 140 125
1.857041 0.5170434 4.581775 151 134 115
1.833566 0.625712 4.589554 149 130 109
1.771428 0.9542318 4.596134 120 95 80
1.751804 1.063821 4.596211 92 64 48
1.989074 1.245865 4.078606 166 124 93
1.919549 1.443326 4.144289 90 65 41
1.943449 1.52785 4.06946 142 102 76
1.929993 1.620816 4.063403 65 44 32
2.137254 1.70479 3.636991 86 66 48
2.131722 1.782034 3.621121 48 37 30
2.201916 1.818857 3.473833 95 80 64
2.19202 1.893483 3.467233 97 80 66
2.156915 1.983126 3.503848 91 76 62
2.113615 2.079927 3.55373 97 82 70
1.780116 2.462883 4.062242 49 23 7
1.787057 2.537795 4.023243 40 22 7
1.849548 2.565304 3.893925 52 35 17
1.894717 2.6014 3.794895 112 94 78
2.981739 -0.3070636 2.591906 80 68 63
2.954143 -0.2824279 2.633785 101 82 72
2.862594 -0.3530321 2.821752 146 124 105
2.779481 -0.3973554 2.986033 153 133 114
2.710726 -0.4099371 3.114183 156 138 121
2.634269 -0.4231161 3.256425 157 141 125
2.546685 -0.4395088 3.419786 157 145 130
2.443656 -0.461737 3.612903 170 157 144
2.316834 -0.4954461 3.852658 175 165 154
2.182815 -0.5195701 4.10232 175 167 159
2.074266 -0.5035675 4.293093 190 184 173
1.983814 -0.4596013 4.442204 203 199 191
2.880855 0.4071298 2.5441 255 254 255
2.865371 0.4552491 2.556558 255 254 255
1.856602 0.06535654 4.502831 198 195 184
1.776189 0.269049 4.582403 168 157 142
1.759862 0.3820393 4.575502 157 143 127
1.732396 0.4916618 4.58979 156 138 119
1.643834 0.938593 4.605775 115 89 72
1.629511 1.050581 4.595578 86 57 44
1.885222 1.237927 4.073729 169 127 99
1.816213 1.438144 4.133838 116 85 65
1.840382 1.524868 4.062299 143 102 77
1.823025 1.62074 4.062767 50 33 21
2.048156 1.706153 3.628924 67 51 33
2.048562 1.782222 3.603704 44 33 22
2.11963 1.821735 3.46271 104 88 72
2.095038 1.905532 3.480124 98 81 65
2.042536 2.006474 3.542395 91 77 63
1.78468 2.398923 3.881482 53 28 13
1.795242 2.468989 3.839864 43 23 5
1.805434 2.537222 3.799506 63 46 33
1.828352 2.592927 3.740208 55 45 33
2.959722 -0.2854925 2.516951 86 75 66
2.901641 -0.3085455 2.622675 148 125 104
2.800865 -0.3864355 2.81758 149 127 108
2.730783 -0.4068759 2.942918 152 131 111
2.656456 -0.4235537 3.074334 153 135 118
2.578655 -0.4348521 3.210029 147 130 115
2.489483 -0.449465 3.366059 162 147 133
2.384543 -0.4699689 3.550681 168 155 142
2.256215 -0.5010274 3.778261 174 162 151
2.114177 -0.5289858 4.02821 171 163 155
1.991237 -0.5228977 4.23539 185 177 165
1.888917 -0.4859852 4.398185 199 195 188
2.826702 0.3897021 2.538818 255 254 255
2.811534 0.4391456 2.549647 255 254 255
1.721706 0.02487276 4.527907 201 196 185
1.645265 0.2367979 4.59375 165 154 141
1.632574 0.3536977 4.579956 157 142 127
1.605096 0.4658943 4.592727 158 141 120
1.519574 0.9225911 4.599948 121 95 78
1.493218 1.036903 4.610171 90 59 46
1.774451 1.230015 4.073593 176 134 103
1.733928 1.33198 4.111638 83 57 38
1.734268 1.521591 4.053689 138 100 68
1.718915 1.618498 4.050472 54 36 19
1.912393 1.643248 3.714034 134 110 91
1.959525 1.706162 3.614865 61 45 29
1.980367 1.774935 3.558622 54 43 32
2.026507 1.828585 3.463941 108 92 75
1.9909 1.91932 3.497027 103 87 71
1.928684 2.026626 3.570338 99 82 67
1.801851 2.479875 3.64884 56 43 32
1.80903 2.547006 3.616323 73 60 48
2.951362 -0.3106239 2.437771 76 62 54
2.915674 -0.3009538 2.492233 138 115 93
2.820977 -0.3751526 2.665176 147 125 103
2.748381 -0.4047066 2.789979 151 129 111
2.680171 -0.4188624 2.903365 149 130 109
2.604267 -0.4341742 3.029414 148 130 113
2.523836 -0.4454631 3.161577 153 137 121
2.433095 -0.458513 3.31077 160 143 130
2.326457 -0.4773049 3.487086 163 149 135
2.197019 -0.5056395 3.702669 170 155 143
2.048666 -0.5357717 3.949091 170 162 154
1.909938 -0.5403625 4.172809 178 170 162
1.796442 -0.5096714 4.346033 196 190 181
2.767578 0.369673 2.538753 255 254 255
2.754955 0.4219565 2.544106 255 254 255
1.507926 0.2029621 4.605718 168 159 146
1.498748 0.3238311 4.586024 158 143 129
1.476157 0.4399874 4.589174 161 143 123
1.445779 0.5547199 4.605215 157 137 117
1.390626 0.9059722 4.593645 114 90 71
1.359392 1.02249 4.61055 103 77 59
1.662954 1.221373 4.067255 173 133 104
1.625724 1.517849 4.042542 134 94 66
1.817277 1.642105 3.700067 137 116 96
1.866622 1.706715 3.602561 53 39 27
1.910389 1.768078 3.514925 81 68 55
1.927074 1.836773 3.468619 109 92 75
1.885173 1.931804 3.508742 105 89 71
1.816404 2.043342 3.587243 99 83 67
1.594535 2.33064 3.861161 37 22 10
1.625726 2.392707 3.793485 47 32 20
1.66595 2.444909 3.714138 47 34 23
1.710497 2.489744 3.629955 45 33 26
1.744203 2.538392 3.562067 49 41 33
2.833357 -0.3735682 2.539453 143 120 99
2.769863 -0.3947338 2.641206 146 124 104
2.70138 -0.4147235 2.750194 150 129 111
2.6298 -0.4302643 2.862675 154 134 115
2.55253 -0.4441143 2.983314 137 119 102
2.470083 -0.4547626 3.110929 154 136 119
2.375929 -0.4684633 3.257077 157 139 122
2.268064 -0.4851781 3.424779 158 141 126
2.139143 -0.5094703 3.626377 165 150 138
1.986971 -0.5395713 3.864713 170 160 148
1.828147 -0.557964 4.109979 174 162 155
1.700451 -0.5354099 4.297164 189 181 171
1.599435 -0.4811781 4.435485 198 199 190
2.696036 0.4039832 2.538809 255 254 255
1.370893 0.1699694 4.606765 174 163 148
1.360958 0.2932558 4.588749 159 145 129
1.343093 0.4133076 4.583601 163 145 126
1.321208 0.5321485 4.584858 159 139 116
1.253367 0.8885382 4.59198 142 113 96
1.218573 1.00745 4.612754 114 86 67
1.547531 1.212355 4.060041 171 131 102
1.501149 1.516707 4.04864 115 82 55
1.721223 1.640243 3.682505 97 75 60
1.77252 1.706604 3.587092 51 39 31
1.8278 1.765834 3.487564 98 82 65
1.823066 1.845314 3.473421 111 93 76
1.778913 1.942582 3.514159 107 91 75
1.686453 2.066825 3.620765 101 86 69
1.510065 2.243163 3.840406 37 19 13
1.497046 2.335515 3.835351 38 18 10
1.537406 2.394142 3.758561 46 31 17
1.585162 2.443629 3.67303 58 44 34
1.63566 2.48652 3.585118 52 40 31
1.681852 2.527801 3.504154 39 31 23
2.786209 -0.390066 2.512884 146 122 101
2.724036 -0.4061091 2.605809 146 124 104
2.654588 -0.4243146 2.709679 148 128 110
2.580679 -0.4398989 2.819264 141 121 105
2.500717 -0.4540681 2.937143 152 132 114
2.415329 -0.4651743 3.062005 150 131 113
2.318763 -0.4784135 3.203384 155 137 119
2.210854 -0.4920792 3.361084 159 140 125
2.080208 -0.5147583 3.553562 160 145 132
1.925442 -0.5437695 3.782117 168 153 141
1.750126 -0.5723218 4.039931 164 155 145
1.600645 -0.5632561 4.251314 181 172 161
1.4875 -0.5145309 4.400737 195 192 179
2.633456 0.3845257 2.535564 255 254 255
1.230001 0.1362896 4.604407 176 165 150
1.218613 0.2617985 4.588983 156 142 126
1.202333 0.3849841 4.581135 166 147 126
1.186041 0.5075584 4.573459 163 142 118
1.106995 0.8701824 4.594847 143 115 96
1.077229 0.9917718 4.606679 118 92 74
1.422164 1.203429 4.060154 165 126 96
1.613416 1.640908 3.67626 55 38 21
1.680867 1.704648 3.563743 40 29 25
1.730906 1.768201 3.476162 114 96 79
1.716539 1.85325 3.475214 112 95 76
1.670137 1.952702 3.516419 113 94 77
1.394182 2.342117 3.812507 39 22 11
1.444312 2.397447 3.726872 54 40 32
1.502154 2.443008 3.632683 46 35 22
1.564137 2.480491 3.534613 52 42 35
1.620215 2.516689 3.445309 43 34 26
2.801043 -0.3858474 2.396346 146 121 98
2.744121 -0.3987916 2.476344 149 125 106
2.679013 -0.4161372 2.568453 147 124 105
2.607561 -0.4340866 2.669277 149 127 111
2.531525 -0.4494857 2.775688 144 126 109
2.448953 -0.4638919 2.890696 152 132 114
2.361482 -0.4745467 3.011429 151 131 113
2.263776 -0.4861665 3.146221 151 133 116
2.153465 -0.4993805 3.298427 154 136 121
2.021849 -0.5199095 3.481162 158 141 126
1.862427 -0.5496822 3.703672 163 148 134
1.67732 -0.5826114 3.961642 164 154 143
1.492514 -0.5962624 4.214612 168 161 148
1.360116 -0.557014 4.384165 189 182 169
2.567324 0.3637353 2.533617 255 254 255
2.552683 0.4190666 2.540222 255 254 255
1.104521 -0.02432204 4.602658 191 183 168
1.083679 0.1013876 4.600877 177 165 150
1.070287 0.2290525 4.588565 157 141 125
1.057084 0.3558274 4.576211 166 146 127
1.045183 0.481927 4.562256 160 139 115
0.9357378 0.9755115 4.592578 122 95 77
1.287158 1.194399 4.065586 165 127 95
1.499274 1.642156 3.672315 75 56 44
1.586384 1.702744 3.540176 72 57 45
1.626101 1.772243 3.469955 108 92 72
1.605558 1.861362 3.476486 105 89 72
1.55469 1.963987 3.520778 94 78 59
1.324109 2.415325 3.724847 100 79 57
1.407259 2.448891 3.604496 40 31 19
1.488055 2.477053 3.488613 40 32 21
1.55169 2.5103 3.394707 44 34 24
2.759552 -0.3960846 2.363509 147 126 104
2.700412 -0.4096028 2.442135 144 122 102
2.633838 -0.4261921 2.530953 146 124 104
2.561147 -0.4429879 2.627635 133 111 92
2.483338 -0.457873 2.730429 153 133 115
2.398886 -0.4717925 2.841498 152 130 113
2.308558 -0.4829625 2.959459 147 127 108
2.210339 -0.4925419 3.087149 147 127 108
2.096673 -0.5063312 3.235527 149 129 111
1.962755 -0.5260584 3.411123 153 136 119
1.801114 -0.554592 3.624133 157 140 126
1.607714 -0.5906777 3.879431 161 150 137
1.379155 -0.6318888 4.180819 159 150 137
1.224347 -0.6034344 4.37229 182 173 161
2.50126 0.3436205 2.527431 255 254 255
2.489324 0.4015238 2.529676 255 254 255
0.9579759 -0.0613084 4.590933 191 180 165
0.9350679 0.06634598 4.591528 177 163 149
0.9175634 0.1954978 4.584882 165 148 133
0.9046738 0.3251987 4.572213 163 145 124
0.8907013 0.4537133 4.561195 159 138 114
1.152386 1.184457 4.062532 162 122 94
1.389066 1.641095 3.65742 70 52 39
1.483431 1.702566 3.522997 69 56 47
1.504967 1.780576 3.477943 119 100 80
1.478191 1.874105 3.49115 115 97 79
1.421762 1.980742 3.539313 110 94 74
0.8809564 2.411585 4.133723 104 75 56
1.024021 2.437229 3.945107 108 82 56
1.157393 2.456975 3.770202 139 116 93
1.300249 2.460697 3.586778 99 79 65
1.410229 2.474162 3.443185 47 37 29
1.478629 2.506594 3.348473 46 37 27
2.718611 -0.4053376 2.32938 161 137 117
2.656747 -0.4201146 2.407344 148 124 103
2.588509 -0.4362738 2.49331 138 118 98
2.514077 -0.4526043 2.586806 144 122 106
2.435696 -0.4656477 2.684381 150 128 110
2.34902 -0.4795364 2.792169 152 130 111
2.257522 -0.4895352 2.904964 149 127 108
2.15574 -0.5002255 3.030346 143 123 105
2.040726 -0.5127351 3.172119 145 125 107
1.903987 -0.5322237 3.34165 150 132 113
1.738915 -0.5605949 3.547337 151 135 117
1.538943 -0.5984152 3.797241 157 142 128
1.279375 -0.6572588 4.123692 148 139 127
1.091182 -0.6466872 4.349087 173 160 148
2.420332 0.3817451 2.523274 255 254 255
0.8131132 -0.09691407 4.568856 191 179 166
0.7882228 0.03247886 4.571526 178 162 146
0.7649362 0.1624163 4.57214 167 150 135
0.7458448 0.2932966 4.567479 163 144 125
0.7263541 0.423667 4.56341 162 140 116
1.019927 1.173565 4.049289 153 115 87
0.9564214 1.399652 4.078164 159 119 87
1.19013 1.564838 3.760443 140 116 97
1.278094 1.639179 3.638278 63 46 37
1.381108 1.701185 3.500525 94 78 59
1.379852 1.788538 3.48352 118 100 79
1.340684 1.888566 3.509687 118 102 84
1.275226 2.000697 3.565086 115 99 81
0.7450972 2.422737 4.116834 57 35 15
0.9003317 2.447237 3.923867 44 27 11
1.05351 2.460955 3.735674 155 134 108
1.196535 2.468967 3.560973 165 143 115
1.327575 2.473612 3.401483 23 15 12
1.40278 2.50418 3.304034 66 56 48
2.675794 -0.4169299 2.297582 169 148 128
2.613817 -0.429482 2.371072 154 132 112
2.543029 -0.4463817 2.455523 128 108 90
2.469077 -0.4597421 2.542889 149 125 108
2.389122 -0.4722942 2.636968 149 127 109
2.30044 -0.4860189 2.741276 149 127 109
2.205629 -0.4971075 2.852076 144 122 103
2.102317 -0.5069529 2.972362 142 123 102
1.984746 -0.5193968 3.109499 146 126 108
1.845812 -0.538182 3.272369 147 127 111
1.677124 -0.5666103 3.471246 148 130 112
1.474279 -0.6035207 3.710938 154 137 122
1.21 -0.6620693 4.025316 150 139 124
2.348115 0.3609673 2.517132 255 254 255
2.320202 0.4149256 2.538298 255 254 255
0.6812384 -0.1270496 4.523769 192 181 167
0.6422908 -0.0005719808 4.543056 180 162 145
0.6148674 0.1304571 4.548233 169 151 134
0.5882092 0.261939 4.552443 161 143 126
0.5595458 0.393232 4.558988 159 138 114
0.8182099 1.392505 4.06273 149 110 83
1.083842 1.558357 3.725322 118 96 77
1.163485 1.637165 3.618337 57 46 34
1.26734 1.702073 3.486407 119 103 77
1.239864 1.799526 3.498365 124 106 85
1.179009 1.909361 3.546072 119 103 83
0.5009634 2.371014 4.230175 71 46 23
0.6383014 2.418855 4.063315 71 47 32
0.7998979 2.44425 3.873168 119 96 72
0.9618018 2.457441 3.685111 165 143 115
1.108898 2.466976 3.514744 171 148 122
1.239612 2.475433 3.363354 176 153 125
2.63379 -0.4271805 2.264108 176 157 134
2.570577 -0.4390977 2.334924 131 111 94
2.500119 -0.4533239 2.414035 144 121 106
2.425271 -0.4655957 2.497539 146 122 105
2.343238 -0.4783101 2.588919 148 124 105
2.252718 -0.4917724 2.689646 148 126 108
2.155184 -0.5034014 2.797635 144 122 103
2.048875 -0.5138681 2.914922 140 121 100
1.928686 -0.5263287 3.04764 138 118 98
1.787937 -0.5441753 3.203676 144 124 104
1.614448 -0.5735906 3.397412 147 129 110
1.409202 -0.6093078 3.626783 150 134 118
1.146337 -0.6636701 3.922175 155 140 129
2.261644 0.3342156 2.523854 255 254 255
2.234561 0.390527 2.542586 255 254 255
0.3871713 0.3618057 4.551793 160 137 113
0.9641769 1.553822 3.700651 110 89 79
1.049901 1.633933 3.592529 50 40 32
1.135719 1.706591 3.485715 125 105 85
1.093417 1.81055 3.511949 127 109 88
1.007682 1.930771 3.582221 118 100 79
0.3773527 2.369898 4.182914 62 33 6
0.5353 2.412546 4.003536 67 42 20
0.7018852 2.439371 3.817779 152 131 105
0.8709185 2.452868 3.631885 173 148 122
1.022168 2.463818 3.465762 178 154 125
1.151731 2.476331 3.322866 185 161 132
2.593843 -0.4346579 2.227653 179 162 141
2.528118 -0.4476404 2.297505 165 148 129
2.458793 -0.4584979 2.370678 152 130 110
2.381939 -0.4710531 2.45189 141 118 99
2.298071 -0.4837182 2.540329 141 117 100
2.204896 -0.4977916 2.638583 143 121 102
2.103559 -0.5109481 2.74506 144 122 103
1.995078 -0.5212469 2.858369 139 119 98
1.872304 -0.5337063 2.986748 137 115 96
1.729143 -0.5511389 3.136966 139 119 99
1.552857 -0.5800329 3.323266 144 124 104
1.345216 -0.6147043 3.542815 145 127 107
1.082634 -0.6658837 3.821766 151 134 121
2.170758 0.3061967 2.530179 255 254 255
2.148799 0.3666459 2.541955 255 254 255
0.8395326 1.549335 3.676228 91 70 56
0.9441149 1.628104 3.554707 52 42 33
1.000552 1.71056 3.481999 126 107 84
0.9459264 1.819956 3.518607 128 110 89
0.8451879 1.946659 3.599509 118 103 79
0.2517636 2.368498 4.134001 63 35 11
0.433418 2.405171 3.940797 93 72 47
0.615844 2.428456 3.749189 168 143 116
0.7846358 2.445499 3.572705 178 155 126
0.9348915 2.460343 3.41566 186 162 133
1.067158 2.474616 3.277201 189 165 136
1.180942 2.490435 3.157459 194 171 139
2.55122 -0.4453509 2.19428 150 133 118
2.486732 -0.4548619 2.258671 175 159 139
2.415703 -0.4657566 2.329663 162 142 122
2.338059 -0.4772239 2.407192 142 120 101
2.253094 -0.4890923 2.491917 141 117 98
2.157076 -0.5039558 2.587908 139 117 98
2.052201 -0.5183458 2.692443 139 117 97
1.940431 -0.5294734 2.803141 140 119 97
1.81556 -0.5415261 2.92675 138 116 97
1.670848 -0.5579261 3.070411 139 118 96
1.492126 -0.586128 3.249174 140 120 100
1.282479 -0.619622 3.458936 141 121 101
1.013493 -0.6719752 3.729653 144 126 109
2.063012 0.3432734 2.536721 255 254 255
0.7036135 1.545931 3.65761 76 55 43
0.8277843 1.623835 3.523585 82 67 45
0.8500078 1.716858 3.486272 125 106 85
0.7967367 1.828035 3.519403 125 108 87
0.1347468 2.362863 4.073812 43 16 6
0.3375809 2.394825 3.870939 131 110 86
0.5267029 2.418693 3.682782 174 149 121
0.7011001 2.436469 3.509987 179 155 124
0.853081 2.45357 3.359132 192 168 137
0.9882014 2.469299 3.224923 193 169 140
1.105761 2.48574 3.107693 194 172 143
2.509466 -0.4548099 2.159517 188 178 156
2.445343 -0.4620839 2.219836 181 168 147
2.372481 -0.4731728 2.288826 169 151 130
2.29488 -0.4827659 2.36195 154 132 113
2.207712 -0.4950139 2.444323 134 112 93
2.109436 -0.5100848 2.537394 140 116 97
2.002803 -0.524114 2.63801 138 116 95
1.886528 -0.5371593 2.747365 139 117 96
1.759759 -0.5487307 2.866168 137 115 95
1.613358 -0.5643204 3.003724 137 116 94
1.432818 -0.5915035 3.174622 142 121 99
1.21941 -0.6251075 3.376866 140 121 100
0.9536176 -0.6728336 3.62969 144 123 105
1.962898 0.3147943 2.541351 255 254 255
0.5616422 1.542506 3.638865 57 44 34
0.7019825 1.620654 3.496948 109 91 70
0.6914916 1.723379 3.490283 125 107 86
0.6300108 1.839072 3.5286 126 108 87
0.02533841 2.353762 4.004603 47 18 7
0.2436476 2.383426 3.798463 156 133 107
0.4364617 2.409117 3.616478 177 151 121
0.6167405 2.427546 3.447214 185 161 130
0.7717836 2.446191 3.301198 192 169 140
0.9127927 2.461767 3.16862 194 171 142
1.034246 2.478666 3.053874 201 178 149
2.470484 -0.4609413 2.121574 195 185 166
2.403973 -0.4692845 2.18098 188 176 156
2.330395 -0.4794025 2.246831 178 162 143
2.250896 -0.4892337 2.317817 161 142 121
2.162508 -0.5008845 2.396847 144 123 103
2.063047 -0.5152114 2.485961 136 112 93
1.953907 -0.5296189 2.583549 135 114 92
1.833985 -0.5438418 2.690537 135 114 92
1.703088 -0.556747 2.806922 135 113 92
1.554779 -0.5717088 2.938841 133 112 90
1.375709 -0.5956752 3.099008 136 113 92
1.156497 -0.6308081 3.295948 138 115 95
0.8965054 -0.6726042 3.529545 137 116 94
0.5089469 -0.7637671 3.882092 145 125 107
1.865413 0.2879294 2.538131 255 254 255
0.4369798 1.535283 3.599711 50 39 30
0.5585558 1.619914 3.480701 119 102 80
0.5183847 1.731484 3.499067 124 106 85
0.4200153 1.859184 3.565895 116 99 78
-0.2112572 2.267126 4.056566 37 7 0
0.1552179 2.36971 3.720737 107 88 65
0.3430908 2.400527 3.551846 182 157 127
0.5344431 2.41745 3.381998 192 168 136
0.6948633 2.436454 3.238884 194 172 140
0.8388343 2.453256 3.110482 198 176 144
0.962966 2.471221 2.999251 202 177 149
2.432124 -0.466415 2.083098 199 191 173
2.363903 -0.4750915 2.140849 192 182 162
2.289674 -0.4842982 2.203653 181 168 146
2.207933 -0.4947725 2.272861 169 151 130
2.117406 -0.5067772 2.349566 153 131 112
2.016244 -0.5208737 2.435377 133 109 90
1.906174 -0.5343229 2.528478 134 111 90
1.783242 -0.5492364 2.632442 132 109 88
1.648675 -0.5631769 2.745908 133 110 89
1.496175 -0.5792736 2.874537 132 108 87
1.317772 -0.6007181 3.025386 131 107 85
1.094802 -0.6360445 3.215126 134 111 90
0.8349206 -0.6755226 3.436035 138 114 96
0.4778874 -0.7473192 3.742017 135 113 94
1.7643 0.2602196 2.533404 255 254 255
0.394624 1.621743 3.475211 131 114 92
0.3259516 1.741887 3.515077 134 116 95
0.2572784 2.388601 3.480309 191 167 136
0.4496946 2.408198 3.318112 194 170 138
0.6150086 2.427876 3.178359 198 176 145
0.7656059 2.444196 3.051274 199 178 146
0.8919969 2.463393 2.943837 201 177 146
2.393839 -0.4718755 2.044693 202 195 174
2.325186 -0.4795495 2.099611 195 186 166
2.247779 -0.4904945 2.161838 185 175 153
2.164276 -0.5010852 2.228803 176 160 139
2.072527 -0.5125782 2.302361 161 141 121
1.970593 -0.5256816 2.38413 139 118 96
1.857431 -0.5400555 2.474882 129 106 85
1.732431 -0.5548745 2.574987 128 105 83
1.595571 -0.5688139 2.684283 129 106 85
1.440305 -0.5850923 2.808341 132 109 85
1.257746 -0.6073915 2.954628 131 106 83
1.03585 -0.6399091 3.133162 131 108 85
0.7732551 -0.6789057 3.344509 133 110 88
0.4387491 -0.7362996 3.614765 134 111 90
1.627936 0.2993907 2.54279 255 254 255
0.2094812 0.5849759 3.61807 85 36 26
0.2043786 1.626718 3.482785 133 113 90
0.1112764 1.754788 3.538744 134 116 95
-0.02057552 2.341674 3.563774 178 150 118
0.1755898 2.374965 3.405336 194 168 134
0.3678536 2.397506 3.251398 195 171 138
0.5354955 2.418912 3.11694 199 176 145
0.690444 2.435874 2.993039 199 178 146
0.8226655 2.454558 2.886749 202 180 147
2.356582 -0.4763081 2.005526 207 201 182
2.285298 -0.4853327 2.059669 202 194 174
2.206835 -0.495823 2.119336 191 181 160
2.121445 -0.5066993 2.184202 180 168 147
2.026933 -0.519126 2.256047 168 153 129
1.924648 -0.5309098 2.333591 150 131 108
1.809455 -0.5453225 2.421064 131 109 87
1.683474 -0.5592766 2.516501 128 104 83
1.542801 -0.574405 2.623011 128 105 82
1.382673 -0.5923133 2.744337 130 107 84
1.196571 -0.6149976 2.885581 130 107 82
0.9748132 -0.6453547 3.054305 133 108 85
0.7105763 -0.6832381 3.255564 134 110 87
0.3891075 -0.7316523 3.500708 133 109 88
-0.1180108 -0.8460285 3.892214 135 109 89
-0.01732945 1.63516 3.504542 130 111 88
-0.1081429 2.327459 3.48479 176 150 120
0.09599662 2.360529 3.328825 197 171 138
0.28755 2.386048 3.183171 198 175 141
0.4563854 2.409563 3.054663 199 177 144
0.616307 2.426881 2.933563 201 180 148
0.7534597 2.445524 2.829228 205 181 148
2.318884 -0.4813128 1.966953 210 204 185
2.246859 -0.4897328 2.018671 204 198 179
2.165753 -0.5013811 2.077168 197 189 169
2.079079 -0.5119887 2.13946 188 178 158
1.981987 -0.525184 2.209397 173 161 142
1.877562 -0.5372288 2.28436 158 141 116
1.761487 -0.5507463 2.367702 144 123 99
1.633445 -0.5646935 2.459522 129 106 84
1.490437 -0.5798983 2.562031 128 105 82
1.327573 -0.5979982 2.678864 130 105 82
1.136038 -0.6223588 2.816631 131 105 83
0.9142227 -0.6508037 2.976205 131 106 81
0.648149 -0.687767 3.167956 133 108 85
0.3265758 -0.7342486 3.399919 131 106 82
-0.1481342 -0.8305038 3.745629 132 107 84
1.40913 0.2445256 2.521344 255 254 255
-0.159277 1.512383 3.475145 110 91 69
-0.1903386 2.311424 3.402093 184 160 128
0.01568699 2.346375 3.252864 193 169 136
0.2093568 2.373668 3.113246 200 176 143
0.3776295 2.399879 2.99164 202 179 146
0.5420332 2.417783 2.873745 204 180 147
0.683969 2.436494 2.771576 205 182 147
2.280868 -0.4867272 1.928799 213 207 188
2.208228 -0.4944424 1.978083 208 202 184
2.125435 -0.5063097 2.034599 200 194 175
2.038317 -0.5159569 2.09375 192 184 166
1.940072 -0.5287552 2.16067 180 170 150
1.83254 -0.5419739 2.233828 168 154 132
1.712895 -0.556802 2.31524 153 134 109
1.581885 -0.5713966 2.404201 133 110 89
1.438556 -0.5852411 2.501291 125 101 79
1.272097 -0.6041259 2.614363 129 105 82
1.078711 -0.6279121 2.745931 130 104 82
0.8541498 -0.6562098 2.898786 128 103 80
0.5872347 -0.6917963 3.080688 130 104 82
0.2576077 -0.7404824 3.305858 129 104 81
-0.1972589 -0.8248357 3.618501 129 104 81
1.293357 0.215633 2.50849 255 254 255
-0.3516276 1.509692 3.460251 113 95 73
-0.2759044 2.29654 3.321755 189 165 132
-0.06582832 2.332645 3.177683 185 159 127
0.1288478 2.362102 3.04462 200 176 143
0.299984 2.389583 2.927469 201 178 143
0.4678764 2.408474 2.813441 204 180 147
0.6119709 2.42847 2.715153 207 183 148
2.243406 -0.4916494 1.890365 218 214 197
2.170442 -0.498448 1.9371 210 204 187
2.085786 -0.5107338 1.991787 205 199 182
1.996295 -0.5211864 2.04933 199 191 175
1.896422 -0.5339631 2.113666 189 179 162
1.787339 -0.5470166 2.18384 175 164 143
1.665474 -0.5620942 2.262288 162 146 125
1.530403 -0.578158 2.34917 143 124 101
1.386718 -0.590739 2.441118 126 103 82
1.218173 -0.6094345 2.54939 128 103 80
1.018857 -0.6352059 2.677813 129 104 80
0.7909176 -0.6636505 2.824571 129 104 81
0.5175664 -0.7007802 3.000885 129 104 81
0.1878474 -0.7473855 3.213748 130 105 83
1.145593 0.1769041 2.512408 255 254 255
-0.3525064 2.278885 3.236054 189 164 131
-0.1416423 2.316983 3.09905 192 168 135
0.05225778 2.349016 2.973383 202 177 143
0.2250586 2.3781 2.861334 202 179 144
0.3935084 2.399107 2.75288 204 179 144
0.5393214 2.42055 2.658657 206 181 144
2.205063 -0.4975152 1.852708 228 226 211
2.130976 -0.5041573 1.897553 216 212 196
2.044975 -0.5163248 1.950051 210 203 187
1.954951 -0.5259387 2.004695 203 197 180
1.853323 -0.5388382 2.066587 195 187 169
1.742752 -0.5517213 2.13381 185 175 157
1.619189 -0.5666909 2.20899 170 157 136
1.480681 -0.5837887 2.293292 152 137 111
1.332143 -0.5982293 2.383315 136 113 90
1.164703 -0.6146527 2.484807 125 101 78
0.9625099 -0.6405718 2.607967 127 102 79
0.7265134 -0.671913 2.751825 130 105 78
0.446528 -0.710627 2.922649 130 105 80
0.1148996 -0.7560844 3.124943 130 105 82
-0.2175405 2.301448 3.020765 194 169 132
-0.02480149 2.336085 2.902381 202 176 144
0.1517196 2.365957 2.794142 202 179 144
0.3212805 2.388736 2.690756 205 180 145
0.4686122 2.411614 2.600619 206 181 143
2.166984 -0.5031674 1.814959 237 235 219
