ply
format ascii 1.0
comment author: PIX4Dcatch
element vertex 1209
property float x
property float y
property float z
property uchar red
property uchar green
property uchar blue
end_header
7.474036 -3.806588 4.116037 178 166 145
7.435725 -3.892667 4.127415 145 139 126
7.399176 -3.980258 4.143937 79 78 77
7.368569 -4.072405 4.177229 65 62 60
7.394267 -4.332366 4.498465 170 163 148
7.347929 -4.426528 4.501928 170 161 147
7.300105 -4.51927 4.500905 173 164 148
7.252994 -4.612555 4.501893 175 165 145
7.205299 -4.70499 4.500813 171 159 140
7.157264 -4.79665 4.49824 172 160 141
7.108954 -4.887444 4.494218 173 163 143
7.061373 -4.978901 4.492358 176 166 148
7.013759 -5.069882 4.489938 176 166 148
6.96677 -5.161702 4.489654 163 151 134
6.920191 -5.254205 4.49091 175 167 153
6.874541 -5.349022 4.49645 176 165 152
6.828836 -5.444069 4.502111 176 165 151
6.7824 -5.537182 4.504289 176 165 151
6.73614 -5.63091 4.507461 173 162 147
6.690566 -5.72755 4.515037 178 165 148
6.463925 -5.222473 3.532394 254 253 255
8.700975 -1.993863 4.467798 117 113 109
8.659663 -2.086939 4.479664 87 83 77
8.624246 -2.177794 4.50055 93 87 82
8.582319 -2.272094 4.512437 128 124 118
8.531869 -2.370034 4.511693 134 130 125
7.69162 -2.796853 3.33241 133 129 123
7.696843 -2.852523 3.396247 140 134 127
7.713784 -2.908228 3.482335 131 126 116
8.259155 -2.861615 4.471001 141 134 123
8.223366 -2.955407 4.494029 145 138 127
8.170278 -3.052248 4.487217 138 131 118
7.788965 -3.51403 4.211791 155 150 137
7.721254 -3.598232 4.165013 167 158 144
7.334665 -3.680462 3.511849 222 217 192
7.548606 -3.947954 4.176569 81 75 70
7.591929 -4.201214 4.504069 164 159 148
7.539726 -4.293754 4.49477 169 162 151
7.491653 -4.38868 4.495612 169 162 147
7.444185 -4.484021 4.498001 172 163 149
7.396226 -4.578881 4.498995 171 163 147
7.34738 -4.672657 4.497255 173 163 146
7.297966 -4.765404 4.493444 174 162 143
7.249785 -4.859282 4.493066 175 163 144
7.201183 -4.952285 4.491041 176 164 145
7.152744 -5.045147 4.489189 173 161 140
7.105247 -5.139307 4.490377 181 170 153
7.057415 -5.232678 4.49017 178 168 150
7.00943 -5.325434 4.489077 176 168 152
6.962239 -5.419732 4.490981 175 164 151
6.915066 -5.514024 4.492916 175 164 151
6.867996 -5.608566 4.495285 174 166 152
6.820652 -5.702209 4.496265 171 160 147
6.774617 -5.800443 4.504172 177 164 149
8.778604 -2.108492 4.473363 115 111 107
8.737924 -2.203091 4.487129 124 118 113
8.690974 -2.300581 4.492392 130 124 119
8.64566 -2.397616 4.500147 139 135 129
8.601195 -2.494617 4.509375 144 140 134
7.74721 -2.881701 3.345313 141 137 131
7.746184 -2.942404 3.398659 140 134 127
7.751862 -3.004413 3.465093 129 123 114
7.956541 -3.37402 4.164309 132 127 119
7.90447 -3.462279 4.152094 161 156 143
7.853593 -3.549896 4.141412 165 161 146
7.80321 -3.636864 4.131017 159 152 140
7.758365 -3.724505 4.131066 78 75 74
7.387407 -3.792003 3.533948 255 254 255
7.748683 -4.162225 4.511685 169 160 146
7.697905 -4.258513 4.509062 168 160 150
7.643476 -4.351965 4.497378 168 161 150
7.593807 -4.448043 4.496532 169 162 149
7.544259 -4.543981 4.495772 173 164 150
7.494521 -4.63949 4.494285 172 163 149
7.445016 -4.734935 4.493154 173 163 146
7.395604 -4.830194 4.492019 172 162 142
7.346284 -4.925268 4.49088 106 94 75
7.297736 -5.021127 4.491824 105 91 75
7.248037 -5.115042 4.48896 177 167 149
7.199874 -5.211095 4.490761 173 163 146
7.150659 -5.305092 4.488829 178 168 151
7.102045 -5.399882 4.488683 179 168 153
7.053234 -5.493935 4.487518 175 166 152
7.004514 -5.587802 4.486348 173 164 150
6.956723 -5.683792 4.488753 174 165 151
6.909721 -5.782179 4.494739 171 162 148
6.862075 -5.878903 4.49807 170 159 144
8.871561 -2.066362 4.362257 75 81 88
8.804724 -2.328885 4.475191 126 120 117
8.75829 -2.427459 4.482065 138 134 130
8.719816 -2.523891 4.500366 140 135 132
8.690614 -2.618642 4.532669 139 135 129
7.799057 -2.971547 3.349426 142 138 130
7.793522 -3.036107 3.395353 137 131 122
7.822104 -3.098994 3.496668 125 120 111
8.09015 -3.32221 4.133699 155 150 138
8.059414 -3.412809 4.159901 161 157 143
8.017076 -3.503517 4.166878 162 157 143
7.974255 -3.59442 4.173215 142 139 131
7.947308 -3.688915 4.209054 71 70 70
7.91981 -3.785295 4.245589 78 74 72
7.897181 -3.885388 4.293399 158 153 142
7.44351 -3.90954 3.558546 255 254 254
7.807312 -4.317636 4.512954 163 157 144
7.751892 -4.412891 4.502031 165 158 147
7.699451 -4.50941 4.497145 167 160 149
7.648781 -4.606863 4.496007 172 165 154
7.597519 -4.703482 4.493169 170 163 148
7.547871 -4.801342 4.49408 157 146 127
7.497503 -4.898251 4.49298 175 163 143
7.447278 -4.995034 4.492013 173 163 143
7.39748 -5.092095 4.491991 172 162 142
7.347054 -5.187981 4.489921 174 164 145
7.297256 -5.284466 4.489409 175 165 147
7.246442 -5.37882 4.485384 178 168 150
7.196835 -5.474873 4.484818 178 168 150
7.147165 -5.570462 4.483754 173 164 150
7.097588 -5.665865 4.482684 171 162 148
7.04863 -5.762441 4.483647 171 162 148
7.001301 -5.863429 4.491093 152 142 126
6.953227 -5.962779 4.495899 168 158 143
6.90518 -6.062555 4.501113 151 139 120
8.946314 -2.107654 4.295099 69 69 74
8.952385 -2.183203 4.365359 77 83 89
8.917511 -2.359261 4.452373 124 117 114
8.872127 -2.458597 4.461235 134 129 126
8.836585 -2.555575 4.483604 135 131 127
8.809081 -2.651601 4.517789 138 133 128
7.848714 -3.065368 3.347618 147 141 134
7.859986 -3.131157 3.418169 145 140 131
8.250531 -3.269127 4.140312 149 144 133
8.236772 -3.361721 4.193244 150 145 131
8.199662 -3.455432 4.210533 144 139 127
8.165359 -3.550351 4.233186 82 82 79
8.142865 -3.648493 4.276912 83 86 84
8.12307 -3.749739 4.327357 129 125 117
8.09948 -3.852912 4.373414 156 153 143
8.052343 -3.951003 4.378535 156 153 143
7.518006 -3.947208 3.539269 255 254 255
7.907899 -4.37133 4.490522 179 169 151
7.862658 -4.47495 4.503054 166 159 146
7.811177 -4.574678 4.502693 169 162 151
7.757992 -4.672778 4.498355 172 167 154
7.706484 -4.77187 4.49744 166 157 139
7.654522 -4.870226 4.495221 169 161 143
7.603736 -4.969487 4.495572 172 164 148
7.552319 -5.067795 4.494167 175 167 149
7.501102 -5.166019 4.493009 174 164 144
7.448805 -5.262337 4.488627 173 164 144
7.397275 -5.359205 4.485887 175 165 147
7.346102 -5.456163 4.483781 175 165 147
7.295267 -5.553277 4.482327 173 163 146
7.244777 -5.650664 4.481633 173 164 148
7.195397 -5.75016 4.484372 152 144 128
7.145791 -5.849139 4.486342 165 157 143
7.09634 -5.948462 4.48883 159 150 136
7.047829 -6.050493 4.494968 77 51 47
6.999184 -6.152602 4.500959 165 150 134
9.02085 -2.148898 4.227982 71 71 76
9.036865 -2.222059 4.307056 67 67 72
8.978792 -2.493309 4.427235 133 127 122
8.955957 -2.588274 4.465621 127 121 118
8.934094 -2.684816 4.506636 81 81 79
8.882278 -2.788771 4.509156 51 57 63
7.906661 -3.161873 3.355107 149 146 136
7.914783 -3.231881 3.420165 147 143 135
8.41295 -3.405053 4.285258 137 134 122
8.431317 -3.50836 4.390661 80 82 78
8.396996 -3.610615 4.417656 132 130 121
8.347198 -3.711512 4.420827 153 152 143
8.295366 -3.811974 4.420675 156 155 145
8.244983 -3.91268 4.42284 155 153 143
8.195025 -4.013507 4.425724 157 153 143
8.144406 -4.114096 4.427452 160 157 145
7.97316 -4.536433 4.495519 171 162 147
7.924308 -4.640318 4.502349 161 155 140
7.870282 -4.740336 4.498628 167 160 148
7.819146 -4.842438 4.500743 164 158 143
7.765183 -4.941725 4.49656 167 158 144
7.71288 -5.042229 4.495743 173 164 150
7.659431 -5.14109 4.491992 172 164 147
7.606751 -5.240372 4.489695 175 165 147
7.553853 -5.338896 4.4865 173 163 144
7.501631 -5.437894 4.484661 170 161 142
7.449131 -5.535997 4.481734 171 159 142
7.398605 -5.637066 4.483963 110 98 85
7.34756 -5.737094 4.48464 167 159 143
7.296673 -5.837248 4.485644 167 159 145
7.245379 -5.936293 4.485208 92 76 72
7.194926 -6.037059 4.487314 164 154 138
7.144733 -6.138475 4.490298 164 151 136
7.094406 -6.239558 4.49283 166 153 138
7.043706 -6.33945 4.493912 174 159 145
9.087938 -2.192754 4.152784 65 66 74
9.020569 -2.727332 4.44213 57 61 68
8.930469 -2.837594 4.396027 85 84 84
8.662375 -3.058367 4.181984 153 149 139
7.96084 -3.262564 3.354374 153 151 143
7.974298 -3.336444 3.425968 151 149 141
8.630215 -3.562323 4.498275 152 151 139
8.571091 -3.666366 4.490718 158 157 145
8.509946 -3.769382 4.479618 157 156 145
8.451288 -3.872135 4.471785 156 155 144
8.394589 -3.974787 4.466595 156 154 144
8.339418 -4.077454 4.463539 158 156 146
8.286297 -4.180562 4.463645 159 157 147
8.23761 -4.285541 4.471244 164 160 148
7.622466 -4.193464 3.551367 255 254 254
8.040597 -4.707646 4.500069 169 161 147
7.982539 -4.807045 4.490664 162 155 140
7.932371 -4.9124 4.496479 162 156 141
7.878213 -5.014185 4.494197 170 164 151
7.824092 -5.115592 4.491696 173 166 151
7.769691 -5.21623 4.488254 173 164 148
7.716419 -5.317727 4.486995 173 164 146
7.662807 -5.418403 4.484678 166 156 138
7.610209 -5.520088 4.484489 145 133 114
7.558357 -5.62268 4.485987 167 157 140
7.505242 -5.722991 4.484097 166 156 138
7.452659 -5.823809 4.483309 89 67 61
7.400802 -5.925708 4.484302 172 164 146
7.348935 -6.027403 4.485137 170 162 147
7.296081 -6.126568 4.482788 160 150 132
7.244495 -6.228339 4.484066 164 153 138
7.192204 -6.327991 4.482849 169 157 142
7.139599 -6.42619 4.480156 171 156 141
9.125924 -2.246238 4.047292 68 70 78
9.15498 -2.316806 4.133142 72 70 78
8.893945 -2.897176 4.184258 142 137 126
8.822155 -2.99817 4.158617 144 141 131
8.766993 -3.096347 4.152849 151 148 136
8.021966 -3.367064 3.360277 154 153 144
8.030171 -3.444859 3.423709 153 152 143
8.736739 -3.723017 4.537622 156 155 144
8.671144 -3.828705 4.523275 158 157 147
8.605936 -3.933385 4.508751 156 155 144
8.542988 -4.037608 4.496878 158 157 146
8.483278 -4.14199 4.489357 160 158 150
8.425853 -4.246598 4.484978 162 161 152
8.372614 -4.352644 4.487058 156 153 141
8.313404 -4.455537 4.479181 171 166 153
8.100757 -4.877728 4.486556 161 155 140
8.048206 -4.983637 4.489446 163 156 143
7.995308 -5.08924 4.491671 167 162 149
7.939892 -5.192224 4.488827 167 160 145
7.886119 -5.296551 4.489043 162 156 139
7.831108 -5.39916 4.486474 133 125 107
7.776167 -5.501371 4.483728 163 154 136
7.722719 -5.605172 4.484014 165 155 136
7.669703 -5.709397 4.485152 84 62 55
7.615975 -5.812292 4.484458 174 164 146
7.561802 -5.914039 4.482403 172 162 144
7.509099 -6.018086 4.483831 173 162 147
7.455936 -6.121045 4.483921 166 155 140
7.402324 -6.222696 4.482535 158 147 131
7.349075 -6.324723 4.48188 168 158 142
7.296006 -6.426791 4.48149 158 147 132
7.242497 -6.527216 4.47941 166 154 139
9.12465 -2.310842 3.905038 118 119 120
9.18712 -2.370989 4.020898 69 65 76
9.204 -2.449382 4.092045 86 82 88
8.557615 -2.836926 3.540689 255 254 255
8.582881 -2.908163 3.617625 213 198 174
8.873289 -2.950479 4.004097 150 145 131
8.912825 -3.037574 4.108855 120 116 108
8.945183 -3.130956 4.208763 79 81 81
9.089658 -3.336108 4.51906 145 145 138
8.081595 -3.47561 3.361151 155 153 146
8.092026 -3.557643 3.42665 155 153 145
8.825353 -3.888086 4.545901 159 157 147
8.757722 -3.995136 4.530849 157 156 146
8.692709 -4.101789 4.518783 159 158 147
8.566536 -4.313541 4.498418 149 148 138
8.506948 -4.419645 4.492712 162 163 153
8.452018 -4.527557 4.493927 162 161 148
8.398125 -4.635957 4.496739 170 165 151
7.766767 -4.373385 3.547174 255 254 255
7.768932 -4.483889 3.6207 206 206 180
8.218203 -4.947052 4.473558 165 156 140
8.175335 -5.063521 4.495185 163 156 144
8.119912 -5.170006 4.494875 158 153 142
8.061455 -5.273184 4.488692 102 96 87
8.007597 -5.380567 4.490896 161 154 140
7.950323 -5.483886 4.486267 162 155 141
7.894166 -5.58793 4.483486 84 62 58
7.839087 -5.692919 4.482645 171 161 143
7.784417 -5.798154 4.482465 171 161 143
7.729685 -5.902994 4.481955 173 163 145
7.675537 -6.008494 4.482594 172 162 145
7.621958 -6.114813 4.484459 170 160 142
7.567564 -6.219425 4.484222 132 120 103
7.513496 -6.324384 4.484612 112 101 85
7.458561 -6.427079 4.482478 168 158 142
7.405396 -6.533511 4.484928 165 154 141
9.138832 -2.367612 3.784845 126 126 127
9.179691 -2.434412 3.873233 130 131 132
9.241159 -2.500551 3.985334 75 73 82
9.280688 -2.577536 4.078356 76 70 79
8.621817 -2.946823 3.531857 255 254 255
8.638035 -3.023463 3.597398 196 181 158
9.045292 -3.074232 4.104726 103 100 92
9.147663 -3.167719 4.281297 134 130 122
9.236949 -3.271744 4.448961 144 142 133
9.260164 -3.38402 4.544338 146 144 138
8.145672 -3.588665 3.364743 155 155 148
8.908074 -4.057582 4.541636 146 144 132
8.843637 -4.16723 4.532864 140 141 132
8.77189 -4.273396 4.513423 155 155 146
8.706412 -4.380558 4.501925 162 162 153
8.644903 -4.48852 4.495555 162 162 153
8.588785 -4.598605 4.496782 159 158 147
8.535873 -4.710425 4.502813 160 158 148
7.834504 -4.517779 3.565181 255 254 255
8.308717 -5.14751 4.502604 142 132 116
8.244823 -5.249731 4.489958 152 146 134
8.184769 -5.354362 4.483264 162 157 145
8.129358 -5.463076 4.484487 61 46 44
8.072838 -5.570372 4.483549 169 162 146
8.015368 -5.676141 4.480571 169 161 145
7.960955 -5.785419 4.483304 169 159 142
7.905004 -5.892495 4.482899 171 161 143
7.849888 -6.000526 4.484051 169 159 139
7.793646 -6.106528 4.482651 163 152 133
7.739111 -6.215095 4.484808 169 159 140
7.683521 -6.321592 4.484474 161 151 134
7.627691 -6.427237 4.48334 166 156 138
7.571245 -6.53106 4.480378 166 155 142
7.516504 -6.638157 4.481403 159 148 135
9.132132 -2.353194 3.606892 135 136 137
9.164406 -2.418822 3.680446 131 132 133
9.207928 -2.485356 3.766979 135 136 137
9.257983 -2.554957 3.862513 130 130 129
9.328115 -2.625548 3.980845 73 73 78
9.369518 -2.707818 4.0741 81 80 83
8.736969 -2.975255 3.527869 250 247 245
8.685398 -3.060509 3.519903 255 254 255
8.696714 -3.141396 3.579049 202 190 161
9.358934 -3.317677 4.413848 142 138 130
9.360922 -3.431322 4.481544 142 140 132
9.326633 -3.546305 4.509848 150 148 141
8.228017 -3.709448 3.387481 151 151 144
8.249322 -3.803235 3.465121 140 139 130
8.994929 -4.233595 4.538678 158 159 149
8.928583 -4.344552 4.529164 160 160 151
8.856709 -4.452289 4.511675 159 160 150
8.787256 -4.559633 4.49664 161 161 152
8.726056 -4.669906 4.492432 159 160 149
8.665717 -4.780126 4.489145 156 155 145
8.605528 -4.889952 4.485797 152 147 135
7.877093 -4.648023 3.539849 255 254 253
8.369546 -5.328114 4.477036 153 145 137
8.317078 -5.442827 4.485054 163 156 142
8.261572 -5.554859 4.488163 161 155 140
8.205181 -5.665927 4.489736 165 158 143
8.146592 -5.774229 4.487281 167 159 143
8.089596 -5.88407 4.48748 168 160 142
8.032351 -5.993299 4.487046 160 151 131
7.975112 -6.102202 4.486435 165 155 138
7.91676 -6.20896 4.483353 160 150 133
7.860824 -6.319191 4.484949 156 145 128
7.803107 -6.426029 4.482616 160 150 132
7.746376 -6.534189 4.482136 159 149 133
7.689814 -6.642304 4.48182 160 149 135
9.161813 -2.401163 3.513581 143 144 144
9.195916 -2.466711 3.585203 147 148 147
9.241348 -2.533364 3.669309 139 140 139
9.289457 -2.604043 3.758425 135 136 135
9.348516 -2.67759 3.86059 134 133 132
9.414609 -2.755763 3.972664 64 62 66
9.467839 -2.842105 4.075719 61 62 71
8.741201 -3.178114 3.497626 255 254 255
9.405452 -3.475863 4.357043 147 143 135
9.35098 -3.587691 4.361109 149 147 142
9.294818 -3.699393 4.363333 153 153 148
8.296839 -3.832833 3.389891 144 145 138
8.309311 -3.929054 3.455614 146 146 139
9.075139 -4.412549 4.523167 157 157 148
9.004487 -4.523355 4.509707 157 157 148
8.929585 -4.630908 4.490012 157 157 148
7.931081 -4.789436 3.529746 255 254 255
8.457727 -5.537652 4.491334 165 156 141
8.400454 -5.6516 4.493622 161 154 140
8.343546 -5.765897 4.496486 165 157 140
8.284859 -5.878098 4.496334 157 149 131
8.22486 -5.988342 4.493739 164 155 139
8.165537 -6.098938 4.492043 164 154 136
8.105758 -6.208392 4.489244 160 150 132
8.046242 -6.31764 4.486611 152 142 125
7.988154 -6.428634 4.486429 151 141 123
7.930513 -6.540068 4.486956 155 145 129
9.193688 -2.447099 3.425163 150 151 150
9.2289 -2.512827 3.494318 149 151 149
9.2727 -2.580453 3.572995 145 147 143
9.322111 -2.651392 3.658967 140 142 140
9.377605 -2.726193 3.752993 137 138 135
9.430676 -2.806814 3.847635 132 132 129
9.500478 -2.891015 3.960765 130 130 126
9.554116 -2.983463 4.06212 85 82 84
8.356037 -3.957783 3.378046 150 150 145
8.35619 -4.053963 3.428192 146 146 139
8.61035 -5.641994 4.506206 161 151 133
8.557999 -5.765134 4.518194 150 142 126
8.494764 -5.877463 4.513747 158 151 137
8.430628 -5.988021 4.507482 159 151 137
8.370249 -6.102274 4.506872 160 151 135
8.309171 -6.215241 4.504899 156 147 131
8.245702 -6.324325 4.498533 150 140 122
9.223838 -2.492215 3.338011 155 154 154
9.25687 -2.558848 3.402064 150 151 148
9.302197 -2.626567 3.478237 148 150 146
9.350336 -2.698192 3.55899 143 145 141
9.403676 -2.77375 3.646587 142 144 140
9.454729 -2.854846 3.734767 137 137 134
9.515113 -2.940308 3.833893 134 133 130
9.607551 -3.029425 3.965032 128 128 123
9.66923 -3.128228 4.071973 75 72 74
8.900191 -3.423647 3.493353 255 254 255
8.912399 -3.516445 3.550714 255 254 254
8.391957 -4.07814 3.337915 156 156 151
8.354184 -4.162276 3.343902 142 142 135
8.127715 -5.032479 3.560549 255 255 243
8.71631 -5.87708 4.532516 160 151 134
8.654375 -5.995372 4.532616 152 144 130
9.25252 -2.536442 3.252337 157 156 153
9.288184 -2.602798 3.315409 155 155 150
9.330033 -2.671669 3.385192 150 152 147
9.377803 -2.743711 3.461757 148 148 143
9.4283 -2.820003 3.542758 146 146 141
9.480057 -2.901126 3.627156 142 142 137
9.535946 -2.987136 3.717546 137 137 132
9.612055 -3.077597 3.8281 132 132 127
9.711903 -3.174368 3.962841 131 131 126
9.005477 -3.55575 3.510683 255 254 255
8.994536 -3.650807 3.545589 255 254 255
8.827971 -6.125189 4.559886 152 143 127
9.280596 -2.579594 3.168767 166 166 159
9.31435 -2.646631 3.227394 161 162 155
9.358007 -2.71545 3.295219 154 154 147
9.40451 -2.788005 3.367131 150 150 145
9.453108 -2.864777 3.442705 149 148 143
9.505923 -2.945892 3.5238 145 145 140
9.565865 -3.031661 3.613024 142 142 137
9.634418 -3.122813 3.711961 136 136 131
9.708177 -3.220393 3.818189 132 132 127
9.083648 -3.691022 3.498962 255 254 255
9.304195 -2.622533 3.084435 176 175 166
9.338731 -2.689558 3.140802 168 167 158
9.380713 -2.75888 3.204145 161 159 151
9.425498 -2.831821 3.271287 156 154 147
9.474355 -2.908602 3.343344 149 149 142
9.525123 -2.989902 3.418866 149 149 142
9.587753 -3.075428 3.505741 146 146 141
9.660241 -3.166413 3.602881 144 144 139
9.705541 -3.264254 3.681046 135 135 130
9.197496 -3.836756 3.515793 212 207 191
9.227873 -3.947952 3.587629 255 254 254
9.326645 -2.664481 3.001882 181 178 166
9.361379 -2.731572 3.055673 177 174 162
9.400036 -2.801532 3.113626 175 171 161
9.443977 -2.874599 3.176883 164 163 152
9.490961 -2.951533 3.244037 157 156 147
9.539113 -3.032875 3.31387 154 152 145
9.594054 -3.118604 3.390677 150 150 144
9.650455 -3.209582 3.47073 146 146 141
9.680896 -3.306076 3.533169 143 145 139
8.126743 -6.850016 3.782803 149 138 115
8.028278 -6.86834 3.714937 148 139 115
7.937739 -6.892459 3.655484 149 140 118
9.341152 -2.706696 2.916609 197 191 172
9.378525 -2.773275 2.969499 184 180 165
9.418298 -2.843029 3.025362 179 174 161
9.461171 -2.916184 3.084791 176 172 158
9.50802 -2.993025 3.148534 170 167 155
9.554063 -3.07431 3.213409 159 158 147
9.597765 -3.160212 3.27837 158 156 148
9.638008 -3.25074 3.342607 148 149 142
8.361729 -6.757669 3.771685 145 136 112
8.261155 -6.787592 3.710204 146 135 112
8.163685 -6.814353 3.649755 155 144 120
8.07123 -6.841606 3.593139 151 141 118
7.981125 -6.865134 3.536788 152 143 119
9.360012 -2.746856 2.836858 211 200 175
9.395546 -2.81373 2.886022 205 196 172
9.436468 -2.88329 2.939895 191 185 168
9.480932 -2.956221 2.997453 181 174 160
9.525149 -3.033205 3.056334 177 172 159
9.569212 -3.114372 3.116652 172 169 157
9.606712 -3.200047 3.174103 164 160 152
9.636247 -3.289898 3.227596 159 157 150
9.499804 -4.422375 3.550854 255 255 238
8.797926 -6.542666 3.848068 141 131 110
8.688194 -6.586654 3.788571 144 134 113
8.58279 -6.628832 3.731393 146 137 113
8.481798 -6.669773 3.676803 148 139 115
8.384815 -6.70939 3.624492 152 140 117
8.289044 -6.743763 3.571083 155 146 122
8.200965 -6.783405 3.524924 153 142 119
8.1129 -6.816443 3.47634 155 146 120
8.028608 -6.849287 3.430288 152 142 116
9.372545 -2.786865 2.755709 213 202 175
9.409558 -2.853391 2.803342 213 202 175
9.453918 -2.92245 2.856681 209 199 171
9.499247 -2.995233 2.911963 199 192 171
9.545882 -3.071923 2.969476 185 179 164
9.585529 -3.153107 3.023986 182 175 163
9.618191 -3.238426 3.075372 171 168 156
9.641461 -3.327484 3.121916 169 167 157
9.022481 -6.389036 3.791973 138 130 108
8.910034 -6.439559 3.736027 144 135 113
8.804804 -6.491569 3.685332 146 137 115
8.698705 -6.536002 3.631407 152 143 119
8.600425 -6.583656 3.583737 151 142 118
8.506416 -6.63084 3.538704 153 144 120
8.412829 -6.672486 3.491999 155 144 121
8.325914 -6.717847 3.450973 157 146 123
8.240688 -6.760064 3.409949 156 145 120
8.155617 -6.796549 3.367012 159 148 123
8.073922 -6.832665 3.326159 155 144 117
9.386694 -2.825414 2.678085 213 202 175
9.426431 -2.891502 2.724967 215 204 177
9.471485 -2.960469 2.776121 216 203 176
9.517375 -3.033137 2.829038 215 203 176
9.565519 -3.109624 2.884638 208 196 173
9.606543 -3.19052 2.93728 191 183 165
9.640781 -3.275458 2.987052 180 176 161
9.256771 -6.238685 3.740738 140 134 115
9.143747 -6.297714 3.690148 140 132 112
9.0309 -6.350664 3.63763 143 136 114
8.922313 -6.401687 3.58712 149 142 120
8.819909 -6.453394 3.540689 154 144 122
8.723216 -6.505984 3.498108 154 145 121
8.628872 -6.555886 3.45609 155 146 120
8.536652 -6.602921 3.414433 156 145 120
8.448721 -6.650259 3.375549 160 148 124
8.362206 -6.694171 3.336398 160 149 124
8.279844 -6.738926 3.300116 159 148 123
8.198092 -6.779285 3.26274 157 147 119
8.117407 -6.815822 3.224747 158 148 120
9.401308 -2.862777 2.603094 214 201 174
9.444237 -2.928441 2.649459 217 205 178
9.489414 -2.997388 2.698201 217 205 176
9.538614 -3.069773 2.750421 220 208 181
9.58775 -3.146176 2.803887 218 205 179
9.628529 -3.226903 2.853791 209 198 173
9.669699 -3.311538 2.905175 205 196 176
9.261212 -6.206246 3.588409 146 138 118
9.154857 -6.267961 3.545232 147 139 117
9.045287 -6.320888 3.497349 151 143 121
8.945134 -6.37782 3.456311 152 145 121
8.846695 -6.431285 3.41518 155 146 122
8.751598 -6.483233 3.375541 158 149 123
8.65816 -6.531846 3.335818 160 151 125
8.56891 -6.580473 3.298575 159 148 123
8.483172 -6.628692 3.263278 165 154 129
8.397417 -6.671744 3.226321 163 152 127
8.316341 -6.716525 3.192685 166 155 130
8.236851 -6.758755 3.159169 164 153 126
8.158039 -6.796948 3.124766 162 151 124
9.417624 -2.898881 2.531226 212 200 173
9.462502 -2.964343 2.576372 215 202 175
9.510534 -3.033062 2.624283 217 205 176
9.560391 -3.105442 2.674333 219 207 178
9.606376 -3.18192 2.723458 220 207 180
9.65267 -3.262328 2.773954 209 198 173
9.712932 -3.347015 2.833597 211 202 180
9.275501 -6.184636 3.452455 152 145 124
9.172185 -6.246135 3.413169 153 146 123
9.070951 -6.304601 3.374129 155 148 125
8.971381 -6.359651 3.334984 158 151 126
8.872541 -6.410233 3.294886 162 153 129
8.778242 -6.460672 3.257295 165 156 130
8.688311 -6.511257 3.222202 168 159 133
8.602509 -6.562198 3.189536 170 161 135
8.519023 -6.61153 3.157681 168 157 132
8.435884 -6.65661 3.124725 169 159 133
8.355581 -6.700965 3.093141 173 162 136
8.274796 -6.739672 3.059564 171 161 133
8.196857 -6.777815 3.027416 171 160 135
9.429554 -2.934501 2.459188 209 196 172
9.4792 -2.999454 2.504531 213 200 174
9.531216 -3.067887 2.552149 216 203 177
9.581888 -3.140247 2.600191 218 206 177
9.629916 -3.216604 2.647984 216 203 177
9.684057 -3.296911 2.700184 212 201 175
9.407731 -6.113609 3.371185 157 152 131
9.298976 -6.172804 3.330395 160 152 132
9.193 -6.229272 3.290292 161 155 134
9.092926 -6.286269 3.253491 165 157 135
8.995047 -6.340554 3.217072 167 160 136
8.89854 -6.391314 3.180361 169 162 137
8.807926 -6.443741 3.147276 172 165 140
8.719262 -6.493783 3.114538 175 168 142
8.635929 -6.545841 3.085227 174 165 139
8.554147 -6.595584 3.056072 179 168 142
8.473404 -6.642335 3.026602 178 167 141
8.394812 -6.687679 2.997869 181 170 143
8.314129 -6.72525 2.965765 182 172 144
8.238368 -6.765636 2.9371 183 172 145
9.42321 -2.970906 2.380525 205 194 169
9.500897 -3.033262 2.437119 208 197 172
9.547737 -3.102105 2.479898 212 200 173
9.609016 -3.174019 2.530835 213 201 174
9.671401 -3.250247 2.583528 214 201 177
9.439306 -6.1122 3.258942 170 167 145
9.326123 -6.165474 3.216417 171 166 145
9.220512 -6.220122 3.178105 170 164 143
9.119428 -6.273978 3.141865 169 164 143
9.022728 -6.327318 3.107701 176 168 146
8.927571 -6.377482 3.073438 178 171 148
8.836649 -6.427535 3.041286 178 171 146
8.749791 -6.477725 3.011232 179 172 147
8.668059 -6.529835 2.984303 181 172 146
8.589216 -6.581599 2.95874 186 177 151
8.511306 -6.630631 2.932891 185 175 147
8.434092 -6.676542 2.906531 185 176 148
8.357437 -6.719024 2.879504 187 177 149
8.27838 -6.753255 2.848975 192 181 154
7.66206 -2.820682 3.390799 127 120 118
7.983375 -2.941533 4.501098 141 135 128
7.921562 -3.008448 4.512863 143 138 131
5.79662 -5.135759 4.484776 96 89 78
5.73189 -5.200799 4.484516 140 132 122
5.667653 -5.263974 4.480831 143 134 124
5.603497 -5.327416 4.478019 145 136 124
5.539185 -5.391856 4.477312 135 126 113
5.474388 -5.45814 4.479989 138 130 116
7.711902 -2.853513 3.370503 132 127 124
7.697685 -2.892339 3.426954 130 124 119
8.188002 -2.853824 4.472494 141 133 127
8.120765 -2.922271 4.47446 137 131 124
8.059926 -2.989569 4.488582 141 135 128
7.998652 -3.057311 4.502717 140 134 127
7.938499 -3.125315 4.520048 143 135 128
7.877856 -3.193875 4.537527 142 134 126
7.817499 -3.262965 4.556882 146 138 130
5.908706 -5.150313 4.484269 146 138 130
5.842665 -5.217609 4.486351 146 138 130
5.776915 -5.283217 4.485222 146 139 130
5.711457 -5.347817 4.482452 144 137 126
5.646071 -5.412698 4.480492 140 131 119
5.580541 -5.478597 4.480541 140 131 117
5.513685 -5.549598 4.489267 145 135 121
7.763254 -2.886731 3.350871 138 134 130
7.741343 -2.928799 3.393542 134 127 123
7.736986 -2.968081 3.46778 130 124 117
8.188827 -2.972469 4.442017 135 129 122
8.129418 -3.040206 4.459207 135 129 122
7.934229 -3.247488 4.483198 110 102 96
7.8714 -3.316988 4.496829 108 102 97
7.806723 -3.386877 4.507341 96 92 90
7.274617 -3.478882 3.566686 255 254 255
7.234173 -3.532972 3.595351 225 217 195
7.35517 -3.625652 4.050841 149 136 123
7.316565 -3.693201 4.112052 125 117 109
7.253942 -3.754997 4.109744 158 149 139
7.192211 -3.816959 4.109684 154 147 132
7.129813 -3.878453 4.107213 157 148 134
7.067879 -3.939971 4.105778 158 147 132
7.006213 -4.00147 4.10488 156 146 131
6.944411 -4.062653 4.103015 151 140 124
6.882546 -4.123488 4.10028 157 147 130
6.81987 -4.182976 4.092942 152 142 122
6.758588 -4.243597 4.090997 120 110 95
6.698349 -4.305555 4.094121 106 97 82
6.638989 -4.36936 4.103048 62 58 50
6.579044 -4.432653 4.109638 65 61 54
6.360251 -4.822701 4.471908 146 139 128
6.293135 -4.891268 4.474397 151 144 133
6.225731 -4.955964 4.468042 156 147 135
6.095977 -4.708375 3.664413 255 254 254
6.024886 -5.158447 4.469751 155 148 137
5.957332 -5.234715 4.487684 152 144 136
5.890241 -5.302351 4.488251 150 143 134
5.823394 -5.368606 4.486401 149 141 133
5.756578 -5.435391 4.485744 143 134 124
5.690001 -5.501368 4.483878 139 130 118
5.623192 -5.568922 4.484869 142 133 121
5.555037 -5.642177 4.495117 146 137 123
7.839473 -2.914694 3.366673 164 163 160
7.790709 -2.964348 3.368141 137 131 128
7.775105 -3.007415 3.422219 134 128 125
8.048282 -3.232205 4.40603 77 74 72
7.982692 -3.301466 4.412886 84 79 78
7.917481 -3.370916 4.420868 90 89 89
7.852286 -3.440602 4.429341 115 111 109
7.762103 -3.507977 4.383825 132 125 119
7.342856 -3.52363 3.585293 255 254 255
7.277645 -3.574493 3.55661 255 254 254
7.398168 -3.752492 4.146132 163 154 142
7.334337 -3.816128 4.145373 159 152 139
7.270018 -3.879383 4.142895 159 152 140
7.207336 -3.943279 4.144925 157 150 137
7.145212 -4.007536 4.148767 154 145 131
7.082049 -4.071132 4.149248 88 78 70
7.017822 -4.133685 4.145569 97 90 78
6.955084 -4.197323 4.146975 57 54 45
6.892643 -4.261265 4.149568 56 54 47
6.833216 -4.329395 4.166384 64 60 52
6.77773 -4.405278 4.206289 61 56 51
6.557954 -4.775369 4.501486 153 146 133
6.488181 -4.842023 4.494923 154 147 136
6.418602 -4.907682 4.48678 161 153 143
6.349528 -4.973788 4.480519 150 142 132
6.280942 -5.041341 4.478081 155 145 133
6.136772 -4.760844 3.639603 255 254 255
6.076211 -5.242953 4.470726 158 148 138
6.007833 -5.318958 4.485367 155 147 139
5.939703 -5.386969 4.484731 152 145 135
5.871632 -5.455281 4.484804 148 141 132
5.803626 -5.523596 4.485013 142 133 123
5.735821 -5.591066 4.483955 146 137 127
5.667926 -5.659506 4.484634 145 136 124
5.598764 -5.73408 4.494902 148 136 125
7.844881 -2.999607 3.348443 144 141 139
7.81757 -3.045981 3.383336 138 133 130
7.80884 -3.090767 3.449467 127 120 116
8.039426 -3.355263 4.358685 114 110 105
7.953094 -3.423956 4.326036 154 149 143
7.832422 -3.488179 4.222064 159 153 145
7.742476 -3.55178 4.173429 170 163 154
7.329536 -3.618131 3.536107 255 255 246
7.294837 -3.676574 3.579563 211 206 195
7.469911 -3.810089 4.146387 173 160 145
7.412806 -3.878044 4.166111 156 149 137
7.350422 -3.944427 4.173249 129 123 114
7.285327 -4.009567 4.173119 108 104 100
7.218547 -4.073448 4.167583 69 69 67
7.153281 -4.137976 4.166016 64 63 62
7.093689 -4.207264 4.183618 61 61 58
6.973456 -4.502558 4.504462 146 138 122
6.903241 -4.574397 4.507214 149 143 126
6.83359 -4.647311 4.512976 152 146 129
6.762818 -4.718266 4.513085 153 147 130
6.691553 -4.787705 4.509501 159 152 138
6.620506 -4.856917 4.505904 158 151 138
6.549772 -4.926239 4.503083 158 151 138
6.47858 -4.992449 4.493714 156 148 138
6.407175 -5.054435 4.476194 158 151 141
6.336937 -5.119027 4.465609 158 149 139
6.178129 -4.812217 3.610691 251 250 245
6.129308 -5.331006 4.472919 160 152 144
6.059946 -5.407189 4.485209 156 148 139
5.990592 -5.476923 4.485678 152 145 136
5.921318 -5.546398 4.485826 145 137 127
5.852117 -5.615847 4.486057 146 139 128
5.783308 -5.682941 4.482688 149 140 130
5.714244 -5.752643 4.483636 149 140 128
5.644341 -5.827035 4.491646 151 142 130
7.865183 -3.084009 3.351529 140 136 132
7.841375 -3.131908 3.392745 139 137 132
7.999268 -3.405785 4.131948 155 150 141
7.929324 -3.471693 4.124981 163 159 150
7.858108 -3.53706 4.114904 165 159 152
7.790058 -3.602371 4.110156 165 159 150
7.717807 -3.666498 4.096189 165 156 146
7.399661 -3.66702 3.552234 255 254 255
7.340679 -3.719983 3.541878 255 254 254
7.479755 -3.936246 4.150239 78 77 77
7.413696 -4.002037 4.149719 73 73 76
7.351764 -4.070102 4.160164 82 80 77
7.267695 -4.368655 4.527225 151 144 130
7.192793 -4.439312 4.519895 148 142 127
7.118626 -4.510012 4.513895 155 147 130
7.045294 -4.581075 4.509949 155 147 130
6.972565 -4.652446 4.507558 151 144 127
6.900313 -4.724158 4.506575 154 146 130
6.828442 -4.796256 4.506898 157 151 136
6.755954 -4.866638 4.503231 160 153 138
6.684067 -4.937829 4.501977 161 154 141
6.611961 -5.007701 4.498093 159 152 141
6.539654 -5.075556 4.490407 161 153 143
6.467248 -5.140594 4.477731 148 142 133
6.395008 -5.202382 4.459775 161 152 140
6.22049 -4.870592 3.592973 255 251 236
6.184407 -5.425253 4.480597 162 152 143
6.113851 -5.500794 4.489068 158 150 142
6.043226 -5.570995 4.488281 149 142 132
5.972678 -5.641753 4.488578 139 132 121
5.902268 -5.711707 4.487737 152 145 132
5.832129 -5.7802 4.484858 145 136 124
5.761994 -5.849876 4.484011 139 128 115
5.691019 -5.925333 4.491622 111 100 87
7.92959 -3.12048 3.342347 160 158 156
7.882887 -3.17185 3.349876 140 137 133
7.875848 -3.220813 3.416984 135 133 128
8.184491 -3.324551 4.076623 141 137 128
7.989587 -3.52388 4.083951 157 154 146
7.915346 -3.750998 4.328729 79 77 81
7.403153 -3.769155 3.538659 255 254 254
7.567268 -4.221664 4.525375 159 155 146
7.491226 -4.294795 4.520811 161 157 147
7.415232 -4.367472 4.515599 158 153 140
7.34096 -4.441126 4.514704 156 149 136
7.264604 -4.512401 4.506667 151 144 130
7.189896 -4.584694 4.502896 156 147 132
7.116565 -4.65824 4.503335 159 150 134
7.042346 -4.730272 4.499928 156 148 132
6.968731 -4.802722 4.498156 155 146 130
6.89545 -4.875351 4.497208 162 153 139
6.822401 -4.948085 4.496794 163 156 142
6.749058 -5.019654 4.494045 160 153 141
6.675857 -5.090849 4.490929 162 155 142
6.60314 -5.162842 4.489863 162 155 144
6.53015 -5.232864 4.485203 160 153 142
6.264194 -4.934544 3.582402 255 255 244
6.241429 -5.519035 4.481486 166 157 144
6.169758 -5.597759 4.492866 148 140 129
6.097781 -5.66862 4.491171 139 129 117
6.025974 -5.738889 4.488801 159 152 139
5.954275 -5.810141 4.488177 150 142 130
5.882848 -5.879502 4.484961 150 142 130
5.811502 -5.949811 4.483389 152 143 131
5.739453 -6.02612 4.490302 151 141 129
8.659843 -3.032023 4.137633 146 143 137
7.934328 -3.211203 3.320594 146 145 142
7.903837 -3.262545 3.351962 142 139 137
8.026622 -3.313115 3.611559 131 128 124
8.248616 -3.376252 4.038469 124 123 114
8.072302 -3.832071 4.458216 133 128 122
7.435654 -3.885765 3.585977 255 254 254
7.72621 -4.220326 4.52256 163 158 149
7.645846 -4.293109 4.511449 165 160 150
7.568223 -4.366897 4.505944 163 158 148
7.492468 -4.441605 4.504616 161 154 141
7.416934 -4.516227 4.503491 155 149 134
7.340272 -4.589416 4.498527 157 149 135
7.264976 -4.663539 4.497009 159 150 134
7.189058 -4.736498 4.492815 159 150 134
7.114356 -4.81059 4.492138 157 149 133
7.039305 -4.883776 4.489582 160 152 135
6.965076 -4.957954 4.489746 164 156 139
6.890759 -5.031658 4.489061 168 159 145
6.816768 -5.105753 4.489453 161 155 140
6.742342 -5.178277 4.486842 163 156 143
6.669046 -5.253799 4.490414 162 155 144
6.595776 -5.329677 4.494559 158 150 140
6.309471 -5.003285 3.576591 255 254 255
6.300427 -5.615183 4.480744 164 155 143
6.227735 -5.697515 4.495432 148 140 130
6.154368 -5.769904 4.494202 145 138 128
6.081146 -5.841959 4.492684 154 146 136
6.008135 -5.912363 4.489009 151 144 133
5.935397 -5.981985 4.484568 151 142 130
5.862795 -6.052775 4.482084 149 140 128
5.789597 -6.130198 4.488654 150 139 128
8.815841 -3.075533 4.207385 148 145 139
8.768557 -3.145706 4.239847 148 147 140
7.950482 -3.303346 3.314047 143 142 140
7.964213 -3.357036 3.408906 140 140 135
8.413985 -3.674014 4.486223 145 143 137
8.335327 -3.750784 4.483952 150 150 143
8.26135 -3.828381 4.489417 152 152 147
8.188078 -3.906332 4.49637 154 152 146
8.11309 -3.983978 4.500483 161 157 150
7.502431 -3.940147 3.582024 255 254 250
7.804893 -4.291008 4.500372 165 159 150
7.72844 -4.367731 4.501131 160 157 147
7.649506 -4.442554 4.495733 165 160 151
7.571675 -4.517687 4.492321 161 156 144
7.495768 -4.594109 4.493423 153 148 134
7.419117 -4.669665 4.492262 161 154 139
7.342049 -4.744431 4.489405 160 153 139
7.265133 -4.818901 4.486344 162 153 137
7.188991 -4.893939 4.485166 158 150 134
7.112993 -4.968829 4.483983 162 153 137
7.037393 -5.044036 4.483804 167 159 143
6.962257 -5.119893 4.485193 176 167 153
6.887072 -5.195487 4.486142 156 148 131
6.812492 -5.272535 4.489987 151 144 131
6.738216 -5.350806 4.495981 166 158 148
6.663796 -5.429227 4.501985 160 153 143
6.355357 -5.068287 3.561059 216 210 200
6.361242 -5.711926 4.475531 166 157 144
6.287654 -5.797615 4.492935 146 137 125
6.213089 -5.874595 4.496703 154 146 136
6.138413 -5.946723 4.493488 151 144 133
6.063966 -6.018574 4.490202 152 145 133
5.989872 -6.087354 4.483087 151 142 130
5.915905 -6.159381 4.480725 149 140 128
5.84128 -6.240352 4.49003 150 139 128
9.075846 -3.189224 4.491077 69 75 80
8.013098 -3.34449 3.296544 151 150 147
8.000977 -3.399448 3.35334 143 143 140
8.046119 -3.460531 3.493689 138 136 131
8.666838 -3.583374 4.474095 146 144 137
8.602345 -3.66362 4.495378 149 147 140
8.51836 -3.741529 4.487886 148 146 139
8.43726 -3.819525 4.484309 157 156 149
8.360641 -3.898318 4.487691 156 154 147
8.280322 -3.976072 4.484823 159 157 151
8.202636 -4.054426 4.486217 157 155 149
8.116447 -4.12936 4.471883 165 161 152
7.571337 -3.996327 3.577596 255 254 255
7.540226 -4.069325 3.63326 255 254 255
7.8913 -4.366784 4.489621 171 164 151
7.814749 -4.445428 4.492895 164 161 151
7.734971 -4.521778 4.488881 163 159 149
7.656227 -4.598479 4.486693 157 152 138
7.577909 -4.675197 4.485093 159 154 141
7.500775 -4.752778 4.48619 163 159 143
7.423347 -4.829905 4.4863 163 156 141
7.345626 -4.906436 4.485236 168 160 144
7.26805 -4.98282 4.484168 157 147 130
7.190848 -5.059422 4.483881 169 159 141
7.11435 -5.136969 4.485774 164 156 142
7.037539 -5.213809 4.486314 166 159 145
6.961007 -5.291036 4.487739 164 157 143
6.884903 -5.369232 4.491011 161 154 141
6.808959 -5.448048 4.495313 163 158 146
6.732627 -5.525847 4.497756 161 156 146
6.655039 -5.598427 4.491638 161 153 145
6.401371 -5.128566 3.53534 200 195 185
6.424675 -5.816304 4.476618 159 151 134
6.349614 -5.900306 4.48895 153 146 135
6.273822 -5.979448 4.493885 153 147 138
6.197767 -6.053657 4.491939 151 144 134
6.121885 -6.126332 4.488194 149 142 129
6.046321 -6.195879 4.480724 149 140 128
5.970892 -6.270662 4.480363 148 139 127
5.894915 -6.354554 4.491343 147 136 123
9.224163 -3.170822 4.430494 95 93 90
9.167068 -3.249704 4.458123 139 140 139
9.101095 -3.329701 4.47614 143 144 143
8.06072 -3.44288 3.328342 143 143 140
8.069098 -3.503505 3.414317 139 139 134
8.709667 -3.731974 4.492819 146 144 138
8.623654 -3.811099 4.484922 154 150 144
8.542692 -3.890819 4.484025 156 154 148
8.462049 -3.970438 4.483398 160 158 152
8.381415 -4.049882 4.482565 156 157 150
8.302702 -4.129824 4.484731 156 156 149
8.226155 -4.210639 4.490671 161 159 151
7.585379 -4.115656 3.578367 255 254 255
7.908535 -4.528766 4.493862 164 160 151
7.825335 -4.605172 4.48606 163 158 149
7.747125 -4.684885 4.488564 152 147 134
7.667469 -4.763274 4.487626 155 148 133
7.587418 -4.840965 4.485329 168 159 143
7.508712 -4.919743 4.486052 162 156 139
7.429648 -4.9979 4.485558 158 151 135
7.351452 -5.076969 4.487277 159 152 135
7.272449 -5.154692 4.486318 164 156 140
7.194602 -5.234035 4.48881 164 158 141
7.115912 -5.311724 4.488196 169 162 147
7.038015 -5.390745 4.490224 165 158 143
6.9595 -5.468147 4.48947 163 157 144
6.881351 -5.546071 4.489817 159 154 143
6.802841 -5.622416 4.487752 156 151 140
6.723944 -5.69634 4.482184 159 153 144
6.414145 -6.009985 4.48948 150 145 136
6.336831 -6.089126 4.492378 151 145 136
6.259334 -6.165176 4.491199 148 143 132
6.18197 -6.240296 4.489025 147 140 127
6.104804 -6.313999 4.485327 144 135 123
6.027803 -6.390751 4.485638 125 115 101
5.950369 -6.477641 4.498051 116 104 91
9.304644 -3.231735 4.382636 139 137 132
9.252513 -3.311498 4.415624 140 141 140
9.207546 -3.392765 4.458735 139 141 139
9.143117 -3.475032 4.480318 144 145 143
8.114347 -3.547962 3.36596 144 144 139
8.133341 -3.615477 3.467515 135 135 130
8.743664 -3.885513 4.49705 154 152 145
8.659332 -3.966641 4.494078 156 155 146
8.57324 -4.046947 4.488085 156 156 149
8.49087 -4.127988 4.487297 156 157 149
8.407111 -4.208299 4.484034 158 158 151
8.330786 -4.291439 4.492764 162 161 152
7.651037 -4.173086 3.560619 255 254 255
8.003275 -4.613539 4.489489 152 146 133
7.921635 -4.693597 4.488397 106 101 93
7.840366 -4.773673 4.487759 159 154 143
7.760908 -4.855149 4.49088 165 160 147
7.679437 -4.934624 4.489301 166 161 148
7.598445 -5.014259 4.48847 162 155 141
7.517921 -5.094148 4.488479 162 156 141
7.437438 -5.173833 4.4883 157 151 134
7.356342 -5.252277 4.485946 163 157 140
7.276406 -5.332134 4.486606 163 157 140
7.196108 -5.411062 4.485752 164 157 143
7.115527 -5.488925 4.483315 165 158 143
7.035244 -5.566778 4.481213 164 157 144
6.956085 -5.64696 4.483161 160 155 144
6.875664 -5.723102 4.478887 159 154 143
6.795021 -5.797106 4.47184 155 149 140
6.48195 -6.12975 4.497805 141 135 126
6.40287 -6.209507 4.499347 122 117 105
6.323771 -6.288373 4.499819 139 133 122
6.244505 -6.361425 4.49326 145 138 126
6.165675 -6.436803 4.489942 137 128 116
6.087062 -6.515893 4.491243 136 127 115
6.008299 -6.601305 4.499805 139 130 115
9.39321 -3.293322 4.341836 148 146 144
9.364718 -3.374559 4.400708 142 141 139
9.327442 -3.458111 4.45249 140 141 141
9.267813 -3.542583 4.480711 141 143 141
8.184006 -3.595522 3.347636 154 154 149
8.179251 -3.661607 3.415787 138 138 133
8.192041 -3.73459 3.510891 133 133 128
8.877396 -3.965252 4.520694 155 153 145
8.785233 -4.046968 4.510077 155 154 145
8.605297 -4.209526 4.492703 105 102 98
8.518042 -4.290819 4.487015 148 149 139
8.435025 -4.373464 4.48749 143 141 133
8.343925 -4.451932 4.474436 159 157 149
7.683189 -4.309674 3.589869 255 254 255
8.098318 -4.699258 4.478969 172 163 147
8.017756 -4.782519 4.482826 155 150 140
7.940652 -4.868777 4.493815 159 155 146
7.857745 -4.950393 4.493266 166 163 151
7.774837 -5.031724 4.492402 164 160 148
7.691849 -5.112641 4.490988 160 156 140
7.608809 -5.193097 4.489006 159 153 138
7.525935 -5.273301 4.486926 159 152 138
7.442574 -5.352251 4.482917 160 153 136
7.361716 -5.43462 4.485461 162 155 139
7.279825 -5.515059 4.484722 164 158 141
7.197845 -5.594863 4.483182 160 153 139
7.115572 -5.673386 4.479897 161 156 142
7.033471 -5.751428 4.476265 154 148 137
6.95219 -5.830826 4.475044 148 145 135
6.869795 -5.905723 4.467599 132 127 116
6.553642 -6.260793 4.514188 136 132 122
6.471832 -6.335713 4.507411 144 139 129
6.390865 -6.415042 4.506459 66 54 52
6.309704 -6.488682 4.498974 74 58 55
6.229086 -6.564797 4.494833 139 130 118
6.148787 -6.643245 4.493636 143 134 120
6.068572 -6.727755 4.499262 140 131 117
8.888308 -3.352767 3.679552 173 164 153
9.485963 -3.439816 4.391111 144 144 143
9.428074 -3.524559 4.41998 138 139 138
9.369574 -3.610561 4.449539 139 140 139
9.312361 -3.698089 4.482034 144 146 142
8.233493 -3.709221 3.374162 136 135 130
8.222075 -3.778747 3.435286 146 146 141
8.913338 -4.130148 4.521436 160 158 149
8.818766 -4.212733 4.509976 157 158 149
8.720116 -4.292941 4.491789 154 155 146
8.632073 -4.376174 4.487784 158 158 151
8.544245 -4.45906 4.483638 202 202 193
8.455038 -4.54077 4.476826 159 159 152
8.365541 -4.621639 4.468831 170 167 155
7.759485 -4.376305 3.582425 218 212 189
8.120016 -4.876714 4.481762 153 148 136
8.042201 -4.96541 4.494107 160 156 146
7.960381 -5.051239 4.499284 165 162 152
7.875079 -5.133754 4.497369 160 157 145
7.788397 -5.214286 4.491941 162 158 142
7.704154 -5.297006 4.491341 158 151 136
7.618731 -5.377786 4.487481 156 150 133
7.534852 -5.460137 4.486868 156 148 132
7.450716 -5.54168 4.485146 153 147 130
7.367527 -5.624393 4.485631 153 146 132
7.284978 -5.708109 4.487835 145 138 123
7.201039 -5.788636 4.485248 142 137 122
7.115927 -5.86539 4.477485 153 147 136
7.031459 -5.942191 4.470438 148 144 134
6.943126 -6.004791 4.444477 147 143 134
6.614724 -5.468261 3.540568 255 254 255
6.62617 -6.382347 4.511836 152 145 134
6.541985 -6.453966 4.499646 148 141 131
6.4592 -6.531738 4.495365 145 138 126
6.376683 -6.608747 4.490561 148 139 125
6.294285 -6.681612 4.481533 143 134 120
6.212554 -6.759148 4.478099 141 130 117
6.131116 -6.840991 4.479489 140 129 116
8.915395 -3.404108 3.596222 255 255 254
8.972901 -3.476488 3.72446 154 149 144
9.5231 -3.591948 4.378363 143 142 140
8.318726 -3.763123 3.367943 171 171 167
8.269585 -3.826273 3.382489 147 147 142
8.272321 -3.903753 3.462112 139 138 133
9.03352 -4.213109 4.515361 152 152 145
8.932961 -4.295681 4.4988 152 152 143
8.843349 -4.38119 4.495883 149 149 142
8.753521 -4.466231 4.492292 156 158 150
8.663983 -4.550976 4.488691 153 155 150
8.574736 -4.635424 4.48508 159 160 153
8.48578 -4.719578 4.481462 157 155 147
7.805713 -4.532417 3.629074 189 183 165
8.227619 -4.975656 4.482734 159 156 144
8.151121 -5.06873 4.500184 160 156 146
8.064721 -5.153913 4.500093 158 155 145
7.978077 -5.238587 4.499256 154 151 139
7.890178 -5.321516 4.495458 152 147 132
7.802896 -5.404533 4.492353 142 134 119
7.716571 -5.488205 4.490834 148 142 123
7.629806 -5.570754 4.48777 164 158 141
7.543064 -5.652649 4.48408 145 139 122
7.456613 -5.734249 4.480381 148 144 127
7.369361 -5.813407 4.473473 170 165 150
7.027521 -6.134175 4.456969 150 143 130
6.945378 -6.222391 4.464062 158 150 135
6.672092 -5.555943 3.53441 255 254 255
6.697976 -6.489476 4.486806 149 142 131
6.612671 -6.563571 4.47678 145 138 126
6.528879 -6.644514 4.475034 147 140 127
6.444827 -6.720599 4.468209 145 136 122
6.361043 -6.794073 4.459055 142 131 116
6.277939 -6.870123 4.453126 139 128 115
6.195329 -6.950428 4.451905 142 134 120
8.983776 -3.45631 3.554584 255 254 255
8.965225 -3.526266 3.603183 200 192 172
8.335892 -3.878402 3.351297 148 149 146
8.311972 -3.95019 3.396644 145 145 140
9.065809 -4.386779 4.505545 147 148 139
8.974918 -4.474505 4.503838 151 152 143
8.885292 -4.562482 4.503537 151 154 146
8.793505 -4.649182 4.500033 153 155 147
8.700272 -4.734643 4.494027 152 153 146
8.611677 -4.822194 4.49428 154 154 147
7.876051 -4.597982 3.601958 237 228 202
8.254311 -5.167629 4.488044 119 115 104
8.171165 -5.258778 4.49673 163 161 151
8.084599 -5.347007 4.499502 151 148 138
7.99487 -5.43172 4.496034 147 144 130
7.9045 -5.515007 4.490637 155 150 135
7.816433 -5.600459 4.489405 71 49 46
7.7287 -5.685936 4.488508 70 47 42
7.640375 -5.770031 4.485764 155 149 132
7.553231 -5.85548 4.485384 159 152 135
7.467379 -5.942983 4.488132 163 159 141
7.381331 -6.030076 4.490317 161 155 140
7.294205 -6.114545 4.489032 159 154 141
7.208723 -6.202631 4.492673 158 153 140
7.124223 -6.293744 4.500071 145 137 123
7.03558 -6.372186 4.491715 158 149 135
9.035761 -3.580481 3.560855 255 254 255
9.01767 -3.654228 3.610722 181 173 155
8.377536 -4.003984 3.361491 146 148 142
8.376394 -4.087268 3.434708 126 126 120
9.128195 -4.578623 4.531327 146 146 138
9.032035 -4.66735 4.526135 146 147 139
8.93405 -4.754573 4.518004 131 132 125
8.836513 -4.841216 4.509748 122 122 115
8.739073 -4.927053 4.50086 101 101 93
8.643023 -5.012868 4.493169 147 146 133
7.952147 -4.668046 3.580515 255 254 254
7.928907 -4.7704 3.651363 240 238 232
8.350626 -5.260996 4.458076 81 71 67
8.271574 -5.358219 4.475445 77 63 65
8.183656 -5.447827 4.478261 161 157 148
8.096128 -5.537869 4.481804 153 151 137
8.007818 -5.627042 4.48389 158 153 138
7.91915 -5.715666 4.485171 159 153 136
7.830332 -5.803894 4.485968 155 148 131
7.740336 -5.890029 4.483867 156 150 133
7.652239 -5.978784 4.485766 156 150 133
7.562209 -6.063783 4.482624 157 151 135
7.474529 -6.152763 4.485087 159 153 138
7.385093 -6.237696 4.482407 159 154 140
7.296586 -6.324052 4.481809 146 139 124
7.20985 -6.414756 4.486637 146 138 126
7.119252 -6.493764 4.477657 152 144 130
9.139375 -3.638597 3.547346 255 254 255
9.071375 -3.708226 3.549796 255 254 255
8.473711 -4.067773 3.358006 156 157 153
8.427532 -4.138147 3.379181 141 141 134
7.983038 -4.825253 3.591215 255 254 255
8.379574 -5.464944 4.460623 158 155 143
8.295771 -5.561939 4.473094 158 155 143
8.208218 -5.655781 4.479789 160 157 143
8.118402 -5.747321 4.482664 159 155 139
8.027039 -5.83684 4.482546 156 150 133
7.937297 -5.928306 4.48542 154 148 129
7.845442 -6.01651 4.483785 154 146 128
7.753817 -6.10451 4.482166 141 133 113
7.662364 -6.192205 4.480435 115 106 90
7.570022 -6.277434 4.47588 90 83 68
7.47912 -6.364695 4.474238 157 151 136
7.388953 -6.452994 4.474082 143 136 121
7.299254 -6.542014 4.474924 154 147 136
7.205986 -6.619945 4.463434 152 145 133
9.164028 -3.767732 3.523797 255 254 254
8.511708 -4.200952 3.358954 144 144 139
8.057485 -4.896385 3.559905 248 248 240
8.500068 -5.583603 4.458448 159 156 144
8.415848 -5.684156 4.472943 157 154 142
8.327447 -5.781319 4.481436 149 145 129
8.237233 -5.876928 4.48726 145 139 122
8.143687 -5.968555 4.487276 139 131 113
8.048738 -6.057863 4.48433 147 141 124
7.954111 -6.146915 4.48143 149 143 124
7.859677 -6.235518 4.478323 157 149 133
7.765448 -6.323645 4.474996 152 146 131
7.66963 -6.40772 4.467172 155 148 134
7.575741 -6.494269 4.462847 141 135 120
7.481787 -6.579451 4.457372 148 141 128
7.389983 -6.668737 4.456879 150 145 133
7.292667 -6.741495 4.438805 148 141 130
9.233838 -3.908469 3.538898 254 254 249
9.225988 -3.994304 3.598394 184 176 165
8.100471 -5.07257 3.582001 255 254 255
8.634298 -5.715436 4.468383 165 157 140
8.552106 -5.822844 4.489007 154 149 135
8.457041 -5.917994 4.490724 151 147 133
8.361446 -6.012369 4.491458 155 150 135
8.262959 -6.10276 4.487008 147 140 123
8.164873 -6.192796 4.482587 146 140 123
8.068064 -6.283805 4.479856 146 138 120
7.969658 -6.371438 4.473367 148 140 122
7.871192 -6.457624 4.465733 148 142 125
7.385599 -6.876674 4.423525 143 135 124
9.303113 -4.056312 3.550906 242 238 230
8.178502 -5.148762 3.548042 234 228 195
8.687749 -5.960905 4.494031 147 142 129
8.591772 -6.060017 4.498037 144 139 126
8.389617 -6.24555 4.489686 137 131 114
