ply
format ascii 1.0
comment author: PIX4Dcatch
element vertex 1222
property float x
property float y
property float z
property uchar red
property uchar green
property uchar blue
end_header
2.196467 -6.366815 2.623987 183 168 146
2.086465 -6.440271 2.640848 178 165 147
4.457045 -3.652097 1.68913 202 194 166
4.553216 -3.808775 1.76482 186 175 149
4.666717 -3.992189 1.853541 168 155 133
4.789388 -4.197818 1.952433 89 90 87
4.884582 -4.392685 2.043501 75 76 77
4.92514 -4.547364 2.111387 96 93 93
4.648186 -4.496606 2.055961 47 67 89
4.578721 -4.54293 2.06603 50 75 99
4.513171 -4.595595 2.079166 58 84 112
4.446325 -4.648856 2.09238 61 91 122
4.374471 -4.697745 2.10319 74 106 146
4.297691 -4.741601 2.111338 88 128 175
4.43156 -5.287208 2.34964 255 254 255
4.333341 -5.327024 2.353452 255 254 255
3.136729 -5.800281 2.395097 190 186 179
3.03608 -5.840559 2.398792 188 181 168
2.938937 -5.902725 2.411811 192 181 164
2.840002 -5.961776 2.423341 192 179 157
2.740204 -6.023282 2.435759 194 179 153
2.639185 -6.085049 2.44813 193 176 151
2.53711 -6.149357 2.461399 193 177 149
2.433952 -6.219396 2.476858 193 176 148
2.3292 -6.287495 2.491329 193 176 149
2.223036 -6.353284 2.504685 190 175 151
2.11548 -6.422624 2.519308 186 173 151
4.497259 -3.71667 1.653184 192 182 154
4.58998 -3.873494 1.723717 176 163 137
4.719977 -4.075141 1.815667 92 90 83
4.829555 -4.272697 1.903678 62 66 72
4.954036 -4.499724 2.004648 98 94 92
4.945506 -4.608139 2.044938 93 92 93
4.720911 -4.492339 1.974645 41 59 80
4.63531 -4.518557 1.974645 48 69 93
4.565196 -4.562594 1.983236 50 75 100
4.499527 -4.613483 1.994955 61 87 115
4.431781 -4.663779 2.006206 69 98 132
4.360393 -4.711196 2.015936 80 115 156
4.291144 -4.763472 2.027766 92 133 182
3.14796 -5.814162 2.29453 190 186 181
3.046596 -5.842978 2.29368 186 181 170
2.950447 -5.899854 2.304124 189 180 164
2.853493 -5.958622 2.315194 192 178 156
2.755268 -6.016398 2.325738 192 177 153
2.656527 -6.079995 2.338439 194 177 152
2.556202 -6.140001 2.349588 193 177 149
2.455109 -6.207687 2.363572 192 176 148
2.352587 -6.276768 2.377919 191 174 149
2.248579 -6.343184 2.391079 189 174 150
2.143252 -6.409265 2.403958 186 173 150
4.513227 -3.761465 1.606097 189 179 150
4.628832 -3.940641 1.68246 167 152 128
4.774065 -4.159884 1.776307 89 89 84
4.881888 -4.359814 1.859232 61 67 72
5.00458 -4.589393 1.954333 99 96 94
4.714522 -4.522011 1.899017 44 63 83
4.626567 -4.544218 1.897448 46 67 91
4.555218 -4.585465 1.90446 55 80 105
4.487241 -4.632043 1.913737 65 91 121
4.41955 -4.680671 1.923776 73 105 141
4.352646 -4.732296 1.934968 87 124 169
4.294271 -4.798503 1.95228 98 139 189
3.158168 -5.82455 2.195612 188 188 184
3.055058 -5.836845 2.188874 186 181 171
2.961076 -5.894382 2.199253 186 178 162
2.866091 -5.952798 2.209838 189 177 156
2.770024 -6.011744 2.220495 191 177 155
2.672846 -6.07104 2.231158 191 176 152
2.574873 -6.134871 2.243351 191 174 148
2.475817 -6.203362 2.25709 191 174 149
2.375153 -6.268175 2.269342 189 174 150
2.273208 -6.337701 2.283138 186 172 150
2.16975 -6.408908 2.29737 184 172 153
3.833847 -2.641281 3.210919 155 135 104
3.532021 -2.657602 3.276111 92 82 62
1.866103 -2.958932 4.43754 154 131 106
1.77327 -2.958567 4.437158 158 135 110
1.402754 -2.958628 4.441399 153 131 105
1.310539 -2.958622 4.442371 154 129 104
1.220645 -2.956737 4.43619 156 130 102
1.130681 -2.955317 4.431777 160 133 107
1.033843 -2.959355 4.448145 161 134 106
3.904004 -2.694841 3.178249 89 26 22
3.864189 -2.707793 3.223799 155 136 108
3.656103 -2.744129 3.352923 67 53 37
3.536794 -2.713577 3.248395 108 97 76
3.456633 -2.705203 3.220395 102 64 58
3.389118 -2.704597 3.219213 92 65 52
3.398374 -3.057735 4.446225 87 72 54
3.007983 -3.057456 4.450611 123 106 83
2.912047 -3.059786 4.460023 123 106 82
2.814544 -3.059041 4.458772 127 108 83
2.717356 -3.05837 4.457777 132 111 87
2.620443 -3.057697 4.456766 134 113 89
2.523787 -3.056895 4.455307 130 108 85
2.427406 -3.055771 4.45272 126 105 81
2.331371 -3.055088 4.451666 131 108 85
2.1399 -3.05489 4.453606 152 130 102
2.044586 -3.054212 4.452557 149 127 100
1.94961 -3.053363 4.450911 154 131 104
1.854957 -3.052467 4.449095 158 133 108
1.760306 -3.052134 4.449238 154 130 105
1.666087 -3.051452 4.448161 142 119 96
1.571578 -3.051545 4.44978 159 135 106
1.477056 -3.051821 4.452036 159 136 113
1.382452 -3.052302 4.455006 161 138 114
1.289087 -3.051594 4.453828 161 139 113
1.197259 -3.049709 4.448535 156 131 107
1.104105 -3.049378 4.448666 156 131 104
1.009877 -3.050075 4.452379 158 131 105
0.9183336 -3.048779 4.449132 144 119 95
3.921823 -2.790738 3.280057 137 122 94
3.650737 -2.796254 3.302096 78 70 53
3.546801 -2.773615 3.231406 96 81 67
3.469982 -2.767431 3.212885 128 86 77
3.406512 -2.770468 3.223627 100 86 74
3.346698 -2.776793 3.24482 144 145 130
3.504874 -3.144867 4.418991 88 74 57
3.406431 -3.145266 4.421867 88 74 58
3.310004 -3.148037 4.432291 86 74 57
3.213628 -3.151309 4.444319 85 72 59
3.11496 -3.151658 4.447036 119 103 84
3.018372 -3.155535 4.461 121 103 82
2.919916 -3.156559 4.465877 127 109 88
2.820439 -3.155061 4.462703 129 110 88
2.721592 -3.154301 4.461879 137 117 95
2.623004 -3.153462 4.460797 135 113 92
2.524735 -3.152844 4.460419 130 109 85
2.426725 -3.152349 4.460429 109 89 69
2.328959 -3.151151 4.458187 140 119 95
2.23138 -3.151507 4.460914 148 125 99
2.133921 -3.151684 4.463062 147 124 97
2.03717 -3.149656 4.45815 151 129 101
1.940244 -3.149503 4.459237 155 131 104
1.843929 -3.14833 4.457051 153 128 101
1.747867 -3.147322 4.45539 144 120 95
1.651567 -3.147234 4.456672 157 133 106
1.555532 -3.146989 4.45745 157 134 107
1.459788 -3.146604 4.457773 159 136 110
1.363991 -3.146527 4.459084 160 137 112
1.269984 -3.144681 4.45471 154 131 107
1.175448 -3.143803 4.45344 159 134 111
1.081359 -3.142776 4.451685 152 127 103
0.9875199 -3.1418 4.450089 141 115 91
0.8976693 -3.13787 4.438984 147 121 99
0.8218762 -3.123954 4.395727 113 95 78
3.98736 -2.882217 3.34611 130 114 89
3.652007 -2.852533 3.264643 102 91 73
3.558573 -2.835943 3.217376 104 80 69
3.486905 -2.833778 3.212306 112 84 73
3.429004 -2.842368 3.238743 129 121 103
3.367545 -2.848983 3.259413 141 146 123
3.516894 -3.237224 4.403176 90 75 59
3.416144 -3.236285 4.402264 88 74 57
3.319019 -3.239712 4.41418 86 73 59
3.224312 -3.247256 4.438204 117 101 83
3.12746 -3.252985 4.456911 127 111 91
3.028514 -3.256178 4.468167 124 108 88
2.92737 -3.255271 4.467359 131 113 93
2.826419 -3.254113 4.465804 133 113 93
2.725761 -3.252851 4.463934 132 112 92
2.625402 -3.251396 4.461491 132 112 92
2.52569 -3.251999 4.465115 122 102 82
2.425935 -3.251014 4.464048 133 111 89
2.326462 -3.250589 4.464628 103 81 65
2.227185 -3.250277 4.465543 147 126 100
2.128373 -3.248399 4.46182 148 127 101
2.029633 -3.247937 4.462281 149 127 101
1.931305 -3.246865 4.460929 155 131 104
1.833518 -3.245218 4.457871 151 126 99
1.735922 -3.243985 4.456034 127 106 83
1.637912 -3.244074 4.458104 152 129 102
1.540937 -3.242737 4.455946 154 132 106
1.443073 -3.24312 4.458888 156 134 108
1.346475 -3.242006 4.457381 155 132 107
1.250319 -3.240738 4.455411 153 130 107
1.15401 -3.239981 4.454954 154 131 108
1.056973 -3.240183 4.457342 149 125 102
0.9619356 -3.238659 4.454598 149 126 103
0.8759271 -3.229764 4.429918 110 95 77
0.8173517 -3.20013 4.343487 106 88 71
0.7715563 -3.164361 4.238704 125 103 84
3.660494 -2.914237 3.241087 118 108 88
3.574773 -2.902831 3.211616 129 88 81
3.508435 -2.905599 3.220549 82 71 61
3.448979 -2.91455 3.246265 154 149 124
3.389255 -2.924397 3.274441 181 182 155
3.242436 -3.357157 4.462056 125 109 91
3.141413 -3.359959 4.471789 129 112 95
3.03874 -3.35999 4.473972 127 111 92
2.935502 -3.358363 4.471629 129 114 94
2.832778 -3.357128 4.470345 134 116 97
2.730241 -3.355412 4.467743 133 115 96
2.628196 -3.354203 4.466518 128 110 91
2.52664 -3.354394 4.469116 133 113 95
2.425103 -3.352904 4.467112 110 91 76
2.32388 -3.353348 4.470396 155 134 108
2.222986 -3.351032 4.466116 149 128 100
2.122338 -3.350079 4.465566 152 129 104
2.021814 -3.349752 4.466723 153 130 105
1.921719 -3.348631 4.4657 152 129 102
1.822056 -3.347164 4.463719 123 102 78
1.723468 -3.344105 4.457359 152 128 98
1.623373 -3.34497 4.461773 152 129 102
1.524947 -3.343082 4.458617 155 132 107
1.42601 -3.342551 4.459182 154 131 106
1.327072 -3.342299 4.460514 154 131 106
1.228733 -3.341521 4.460395 151 128 103
1.130391 -3.34102 4.461031 152 129 104
1.03024 -3.342601 4.467408 121 101 81
0.9354206 -3.33895 4.459351 113 95 78
0.8591014 -3.319213 4.406882 106 89 74
0.8385111 -3.254802 4.230989 119 97 77
0.7902617 -3.219946 4.136559 122 100 80
3.674468 -2.980974 3.227438 111 89 77
3.593535 -2.973381 3.209907 117 99 87
3.530512 -2.980096 3.228395 124 125 112
3.470783 -2.990589 3.256427 162 157 130
3.26134 -3.47215 4.486697 128 112 94
3.155909 -3.47138 4.487075 125 111 93
3.049984 -3.469033 4.483449 131 115 97
2.943707 -3.46464 4.47463 131 115 97
2.839008 -3.462793 4.47225 131 115 97
2.734804 -3.461358 4.470909 127 111 93
2.631033 -3.460464 4.470936 114 97 84
2.527613 -3.460388 4.473033 136 120 100
2.424262 -3.45883 4.471361 149 129 107
2.321251 -3.45761 4.470542 147 128 104
2.218592 -3.455787 4.468177 150 131 107
2.116193 -3.454735 4.467772 152 131 105
2.01399 -3.454027 4.468237 155 132 107
1.912035 -3.453245 4.468509 139 116 93
1.81202 -3.447815 4.456906 154 130 101
1.710315 -3.448276 4.460336 147 125 98
1.60892 -3.448252 4.462524 153 129 102
1.508607 -3.446566 4.460457 154 132 104
1.408358 -3.445338 4.459555 152 129 104
1.308151 -3.444467 4.459562 150 127 102
1.208664 -3.442987 4.458002 151 127 102
1.108361 -3.442858 4.459896 124 102 83
1.006837 -3.44422 4.465616 130 111 91
0.9304336 -3.41996 4.405566 105 90 74
0.9008645 -3.354393 4.239345 114 94 76
0.8586386 -3.308215 4.122755 120 99 79
0.7905233 -3.289237 4.075964 167 142 115
0.7053578 -3.285992 4.069593 165 141 112
3.798171 -3.077557 3.277895 102 94 78
3.689879 -3.050195 3.215545 111 71 65
3.614882 -3.047969 3.212043 82 74 64
3.552612 -3.056882 3.234671 151 149 126
3.498553 -3.074752 3.278355 195 192 161
3.820518 -3.592417 4.499002 82 74 60
3.393894 -3.600637 4.528635 145 125 101
3.281041 -3.592514 4.512042 131 115 95
3.169726 -3.585037 4.496944 129 114 95
3.060538 -3.579844 4.487215 131 116 98
2.952596 -3.575799 4.480181 129 114 98
2.845581 -3.572609 4.475152 130 115 99
2.739296 -3.570166 4.471879 120 105 91
2.633765 -3.569455 4.4727 125 109 93
2.528576 -3.569848 4.476129 104 87 76
2.423405 -3.56897 4.476542 146 129 108
2.318501 -3.566853 4.47401 146 126 104
2.213974 -3.565048 4.472211 149 129 107
2.109924 -3.562483 4.468595 152 131 107
2.005511 -3.563702 4.473968 143 122 96
1.903547 -3.556154 4.458478 156 133 107
1.799837 -3.556796 4.462464 148 127 101
1.696762 -3.555999 4.463021 157 134 107
1.594244 -3.554516 4.461936 154 129 103
1.49255 -3.552099 4.458616 154 130 103
1.391142 -3.549931 4.45588 147 123 96
1.289997 -3.547971 4.453632 147 124 99
1.189924 -3.54507 4.449124 122 102 82
1.088206 -3.544833 4.450978 144 121 99
0.9928712 -3.537425 4.435665 106 91 75
0.9550794 -3.469545 4.275501 112 91 75
0.917177 -3.410681 4.136732 123 104 85
0.8558738 -3.381089 4.067974 165 141 112
0.769269 -3.377424 4.061332 166 141 113
0.6778841 -3.378255 4.065474 166 144 114
3.817011 -3.151751 3.268263 79 68 55
3.708897 -3.123931 3.209296 108 88 78
3.635672 -3.124134 3.211591 97 99 87
3.577077 -3.138199 3.24425 156 151 125
3.533844 -3.169545 3.314844 163 157 127
3.85375 -3.718084 4.523094 80 73 60
3.739884 -3.714164 4.517266 88 79 65
3.183971 -3.703046 4.5066 143 125 102
3.070071 -3.691402 4.483647 134 117 99
2.960056 -3.686224 4.474934 130 116 99
2.851692 -3.68405 4.47284 123 111 94
2.743712 -3.681819 4.47061 130 116 100
2.636391 -3.681139 4.471802 119 108 96
2.529449 -3.682112 4.47665 143 127 106
2.422372 -3.679773 4.474159 145 129 108
2.315672 -3.679087 4.475323 146 129 108
2.20932 -3.676742 4.472799 148 128 108
2.103147 -3.675991 4.473803 146 126 104
1.892596 -3.670237 4.466343 143 123 97
1.78724 -3.669755 4.467925 153 133 107
1.683087 -3.666682 4.463732 151 129 103
1.579402 -3.663681 4.459686 154 131 104
1.476425 -3.660261 4.454696 151 126 99
1.373408 -3.657843 4.451925 150 126 99
1.27252 -3.652763 4.443199 120 99 77
1.172193 -3.647944 4.435037 146 123 99
1.072993 -3.642582 4.425643 104 90 74
1.017993 -3.584772 4.298844 115 95 77
0.9909441 -3.50367 4.119693 119 99 80
0.9247559 -3.474328 4.056299 168 142 113
0.8384172 -3.468557 4.045673 165 141 112
0.7461461 -3.469066 4.049124 165 141 112
0.6482016 -3.474611 4.063882 168 144 115
0.215771 -3.672462 4.513465 150 129 103
3.834889 -3.226799 3.255761 88 66 60
3.729553 -3.200896 3.204757 94 85 74
3.659292 -3.205002 3.215141 101 106 93
3.603317 -3.223808 3.255672 170 162 132
3.873046 -3.830946 4.50926 79 72 59
3.758571 -3.828072 4.506321 83 76 63
3.114013 -3.292885 3.412048 255 254 255
3.041417 -3.306093 3.441394 255 254 255
2.966636 -3.796937 4.462607 137 122 102
2.856348 -3.793314 4.458001 116 104 89
2.748021 -3.796176 4.466808 130 118 101
2.639493 -3.799186 4.475928 142 128 110
2.530373 -3.798602 4.477602 144 130 110
2.421297 -3.79422 4.471385 144 130 110
2.312805 -3.792457 4.470595 148 132 112
2.204699 -3.789965 4.468279 146 128 107
2.097107 -3.786763 4.464473 119 102 87
1.990079 -3.78323 4.459966 139 119 99
1.881963 -3.785951 4.468476 156 137 115
1.775395 -3.783169 4.465518 151 130 106
1.669088 -3.780875 4.463564 151 130 104
1.564307 -3.775977 4.456164 149 126 101
1.459732 -3.772063 4.450801 146 123 97
1.357676 -3.764649 4.438106 122 102 80
1.256937 -3.756701 4.424266 141 118 93
1.157548 -3.748307 4.409463 106 88 71
1.097959 -3.687036 4.28381 119 100 81
1.064872 -3.601496 4.107061 118 98 79
0.992869 -3.573727 4.051302 168 142 114
0.9004345 -3.57216 4.050494 169 143 113
0.8093528 -3.569488 4.047353 169 142 114
0.7114439 -3.573879 4.059061 171 146 115
0.2847006 -3.783805 4.506253 144 125 99
0.1719675 -3.789741 4.521562 151 130 106
3.861001 -3.310742 3.256098 91 84 74
3.754518 -3.283808 3.206564 66 59 56
3.681957 -3.287229 3.215232 107 103 91
3.6322 -3.314886 3.270489 108 102 91
3.884993 -3.936968 4.475491 80 73 62
3.779052 -3.947172 4.498296 80 74 64
3.676615 -3.964234 4.534365 104 95 83
2.753523 -3.919512 4.47272 113 98 86
2.642737 -3.921936 4.480501 146 133 112
2.531195 -3.917898 4.475713 143 129 111
2.420109 -3.910432 4.464233 148 132 114
2.309876 -3.908028 4.462595 148 132 114
2.200113 -3.904588 4.458921 130 116 100
2.090391 -3.904568 4.461912 144 126 105
1.980401 -3.906538 4.468786 146 129 105
1.871069 -3.905429 4.469644 152 133 110
1.76235 -3.903091 4.468091 149 129 105
1.654808 -3.898548 4.462209 151 130 104
1.548552 -3.89243 4.453223 145 124 98
1.444632 -3.883086 4.437887 125 106 85
1.344059 -3.869638 4.414464 133 111 90
1.246905 -3.853142 4.385008 116 98 80
1.166087 -3.814343 4.311647 116 97 76
1.137392 -3.707516 4.104313 118 98 78
1.069965 -3.667882 4.028956 167 141 111
0.9694076 -3.674605 4.044831 166 142 111
0.8725265 -3.676341 4.050889 171 145 117
0.7708374 -3.683171 4.067003 171 144 116
0.3582439 -3.896727 4.494456 149 130 103
0.2472129 -3.900068 4.50403 148 128 102
0.1265912 -3.911532 4.529696 147 126 101
3.891492 -3.401022 3.262099 82 77 68
3.779599 -3.369132 3.206916 74 70 64
3.702011 -3.368976 3.208856 120 114 105
3.649841 -3.396601 3.260933 114 108 101
3.60906 -3.441007 3.343411 64 60 54
3.683673 -4.068783 4.490744 109 104 90
3.568727 -4.069636 4.4956 120 113 100
3.451257 -4.065642 4.491655 120 114 99
2.73069 -3.481618 3.442958 255 254 255
2.643623 -4.031976 4.453172 166 148 120
2.531188 -4.031597 4.455701 153 137 117
2.418817 -4.028503 4.453259 150 135 115
2.306807 -4.029396 4.458105 133 118 102
2.195247 -4.024582 4.45249 147 130 109
2.083057 -4.029434 4.464591 145 129 107
1.970788 -4.032458 4.473347 148 131 110
1.858825 -4.033296 4.478092 147 129 106
1.74816 -4.029781 4.474829 148 128 106
1.638832 -4.023833 4.467074 149 128 104
1.532277 -4.012865 4.450046 122 105 84
1.430416 -3.994446 4.41924 127 108 87
1.333619 -3.97021 4.37764 117 101 82
1.24846 -3.930169 4.306766 114 98 79
1.20954 -3.822456 4.110657 123 105 84
1.143672 -3.77228 4.020672 164 138 110
1.042902 -3.77778 4.033633 167 141 110
0.9401612 -3.785175 4.05012 171 145 115
0.8317058 -3.798591 4.077794 175 148 118
0.4382681 -4.008889 4.474136 147 128 101
0.325141 -4.013073 4.485041 146 125 99
0.2058542 -4.022814 4.506299 144 123 97
0.0745225 -4.042651 4.546385 122 101 81
4.436933 -3.803835 3.784983 50 46 40
4.252099 -3.723457 3.651939 56 57 54
3.803433 -3.455498 3.20344 85 81 73
3.719634 -3.450089 3.196602 87 79 74
3.660106 -3.471744 3.235688 123 111 100
3.604923 -3.501412 3.288455 111 102 90
3.677389 -4.152725 4.408785 119 113 104
3.566032 -4.159426 4.423637 117 114 104
3.450844 -4.15969 4.427509 120 115 104
3.339286 -4.167842 4.444865 122 117 104
3.22894 -4.180931 4.470695 124 117 104
2.725541 -3.532099 3.367419 255 254 255
2.644213 -3.534413 3.373817 254 253 254
2.303757 -4.149374 4.443742 140 125 106
2.190187 -4.149052 4.446557 144 129 107
2.075444 -4.159104 4.467283 144 128 108
1.960431 -4.165414 4.481569 146 130 109
1.845656 -4.168317 4.489974 147 130 109
1.73187 -4.167036 4.49114 144 127 105
1.621464 -4.156374 4.476039 130 110 91
1.517185 -4.13301 4.438868 133 114 93
1.419913 -4.099437 4.383891 116 101 84
1.338751 -4.040316 4.284409 117 103 85
1.278461 -3.954174 4.137737 116 100 82
1.213458 -3.89114 4.031032 159 136 109
1.115072 -3.890072 4.032108 163 139 110
1.013169 -3.894341 4.042487 167 140 112
0.900349 -3.912729 4.077523 170 144 114
0.6399757 -4.113286 4.430885 147 129 100
0.5167871 -4.128614 4.460956 146 127 100
0.4030104 -4.13189 4.469975 146 125 99
0.2846515 -4.139722 4.486983 141 121 95
4.603974 -3.942308 3.821473 46 42 38
4.446253 -3.890229 3.741702 50 49 49
4.279517 -3.824285 3.639683 55 56 55
3.531632 -3.577422 3.261556 129 116 102
3.446186 -4.245263 4.348938 122 118 108
3.339264 -4.263936 4.382535 122 118 108
3.228631 -4.277536 4.408005 116 113 103
3.117781 -4.294326 4.438664 116 111 100
3.016373 -4.350598 4.533166 106 97 89
2.068293 -4.287694 4.45996 145 130 108
1.951473 -4.293389 4.47278 143 127 106
1.834421 -4.298044 4.483917 142 126 106
1.719118 -4.294966 4.48244 134 118 100
1.607614 -4.281392 4.463798 126 108 89
1.506702 -4.243298 4.405006 114 100 84
1.425169 -4.16855 4.286085 114 100 84
1.360268 -4.07455 4.135385 119 103 85
1.286516 -4.015623 4.041923 160 138 110
1.187497 -4.01132 4.03796 158 136 108
1.086986 -4.010253 4.039299 162 137 109
0.9714717 -4.031853 4.077912 166 141 114
0.7224002 -4.236032 4.41717 145 126 99
0.5981952 -4.25186 4.446672 146 127 100
0.4799252 -4.258654 4.461322 145 124 96
4.621943 -4.039101 3.787037 42 40 42
4.461473 -3.983094 3.706232 44 49 50
4.309386 -3.92987 3.629428 52 55 57
3.465371 -3.66698 3.252987 131 117 110
3.398057 -3.692297 3.293904 128 118 114
3.326337 -3.714025 3.329459 129 121 117
3.254342 -3.739218 3.370331 126 120 113
3.182179 -3.769198 3.418547 122 116 111
3.221342 -4.355482 4.315917 114 113 104
3.110929 -4.372276 4.345123 113 112 103
3.013604 -4.443674 4.457611 131 128 114
2.901226 -4.477521 4.513015 135 130 117
1.828481 -4.405917 4.436939 133 117 99
1.712426 -4.402575 4.435459 131 113 94
1.600258 -4.388113 4.416813 113 100 85
1.511652 -4.312231 4.30329 112 99 84
1.44463 -4.201469 4.13563 116 102 86
1.364114 -4.143878 4.049885 161 142 115
1.265261 -4.133879 4.037663 155 135 107
1.160465 -4.136566 4.045071 161 138 111
1.050646 -4.147367 4.065073 158 137 109
0.8054852 -4.366088 4.408003 143 126 101
0.6827276 -4.378534 4.430933 142 125 99
0.5594771 -4.39018 4.45265 143 124 97
4.634953 -4.132638 3.744917 38 40 47
4.487164 -4.087623 3.684495 48 53 54
4.339324 -4.038032 3.617453 46 50 54
3.464021 -3.732271 3.202916 128 117 114
3.388536 -3.744649 3.223264 132 124 122
3.314782 -3.762276 3.251157 135 127 125
3.239605 -3.78023 3.279569 134 126 121
3.163994 -3.800842 3.311843 135 127 123
3.089684 -3.829407 3.35559 130 123 118
3.006891 -4.521317 4.36001 132 128 119
2.892567 -4.543664 4.396043 133 130 118
2.223743 -3.829561 3.383662 254 253 254
2.136277 -3.840521 3.402343 255 254 255
1.603241 -4.461582 4.318666 108 95 80
1.531789 -4.336004 4.139151 116 102 86
1.445976 -4.276665 4.055999 154 135 111
1.344996 -4.264499 4.041632 150 131 106
1.23465 -4.274112 4.059098 156 137 111
0.8856238 -4.511289 4.413712 139 124 100
0.7637548 -4.519472 4.429478 142 125 102
0.6392158 -4.530664 4.449687 139 121 96
4.653757 -4.232949 3.709599 39 43 50
4.51798 -4.199502 3.668279 45 51 58
4.370866 -4.150443 3.605957 44 52 60
3.475503 -3.818691 3.181254 169 166 152
3.394291 -3.823096 3.189954 136 134 130
3.315814 -3.833419 3.206665 132 128 124
3.237939 -3.846847 3.227607 135 129 126
3.160058 -3.862943 3.252203 137 131 128
3.082077 -3.882404 3.281405 138 134 128
3.004441 -3.907891 3.318848 142 136 131
2.92988 -3.951549 3.381064 132 128 122
2.857952 -4.021533 3.479231 130 126 118
2.539699 -4.775597 4.521945 132 127 112
2.41489 -4.822769 4.590623 134 127 110
1.428831 -4.399834 4.04408 149 130 105
1.316376 -4.410108 4.061841 152 133 108
0.9637139 -4.67435 4.435162 133 120 98
0.8417345 -4.677855 4.443969 138 123 99
0.7166089 -4.686223 4.459538 136 119 95
4.674675 -4.336915 3.675899 42 49 59
4.548628 -4.31368 3.650028 41 49 59
4.410004 -4.274002 3.60328 42 51 63
4.26349 -4.220839 3.539328 55 59 68
3.330047 -3.9314 3.195703 188 185 169
3.24351 -3.929363 3.195968 149 147 143
3.16133 -3.937308 3.209017 138 135 131
3.081525 -3.953402 3.232542 142 138 134
3.001378 -3.972558 3.260046 143 139 135
2.920768 -3.995763 3.292808 143 139 133
2.84008 -4.02686 3.335799 141 137 130
2.757916 -4.063934 3.386581 135 132 124
2.674615 -4.1144 3.454749 135 131 124
2.534586 -4.835571 4.393649 130 126 112
2.411414 -4.883859 4.460331 128 124 109
2.284623 -4.91178 4.500753 131 124 108
1.04043 -4.859223 4.474411 132 118 96
0.9159906 -4.860102 4.479724 133 117 96
0.7853932 -4.872415 4.500055 129 114 92
4.69527 -4.442199 3.640574 37 46 60
4.585572 -4.437275 3.638283 40 48 62
4.456484 -4.409325 3.608406 46 56 68
4.316497 -4.365107 3.558946 52 58 69
4.174425 -4.31328 3.500223 69 73 80
4.051024 -4.280725 3.464504 66 74 82
3.84291 -4.261938 3.448569 84 92 100
3.744575 -4.259793 3.449298 99 108 118
3.645988 -4.256751 3.448936 102 110 118
3.168744 -4.027669 3.184224 193 192 178
3.083677 -4.032263 3.192766 156 154 150
3.001143 -4.045972 3.212403 145 142 140
2.917439 -4.059382 3.231714 146 142 138
2.832576 -4.072373 3.250551 147 143 138
2.74797 -4.092233 3.277805 146 142 134
2.663201 -4.12204 3.317266 146 141 134
2.577142 -4.163008 3.370463 137 132 123
1.766528 -4.111453 3.334918 254 253 254
1.662377 -4.159016 3.396824 255 255 250
1.006696 -5.027884 4.485089 140 123 98
0.8680309 -5.052172 4.519622 132 116 95
0.7270342 -5.077244 4.555196 107 93 75
4.671825 -4.501129 3.549786 25 41 60
4.599543 -4.53761 3.594704 29 47 66
4.505551 -4.551603 3.614237 44 55 69
4.363666 -4.506624 3.566883 69 75 82
4.224978 -4.460872 3.51852 64 69 78
4.08036 -4.401391 3.454404 220 203 165
3.878963 -4.398313 3.457826 133 133 136
3.784264 -4.406459 3.470586 121 126 135
3.687917 -4.412679 3.481165 114 124 133
3.591742 -4.420098 3.493132 110 119 127
3.491572 -4.420084 3.496598 102 114 122
3.007476 -4.141488 3.189574 194 193 179
2.920214 -4.145956 3.197801 157 157 150
2.832941 -4.151728 3.207543 149 148 146
2.746217 -4.162801 3.223429 148 145 141
2.659817 -4.182212 3.248996 148 142 137
2.572595 -4.208617 3.28272 146 138 130
2.483683 -4.241757 3.324335 140 133 122
2.392214 -4.278721 3.370482 132 125 112
4.669461 -4.469889 3.361694 24 40 60
4.613933 -4.519735 3.418591 24 43 64
4.554503 -4.569593 3.475639 28 47 70
4.49696 -4.626618 3.540519 32 51 74
4.429818 -4.676975 3.598388 33 52 75
3.897722 -4.510351 3.433534 255 254 255
3.792693 -4.502984 3.429123 255 254 254
3.695916 -4.509954 3.440222 251 250 250
3.6001 -4.519868 3.45453 134 136 142
3.507857 -4.5393 3.479204 120 129 139
3.41342 -4.556966 3.502007 114 126 135
3.313573 -4.563625 3.512872 117 129 138
2.840829 -4.267128 3.202788 193 195 179
2.748484 -4.256583 3.194426 159 159 152
2.659346 -4.263276 3.204949 146 142 136
2.570914 -4.282303 3.229042 145 137 129
2.481358 -4.306943 3.259359 142 134 124
2.38994 -4.332334 3.29057 142 133 121
2.296363 -4.367477 3.332606 135 127 113
2.199261 -4.415872 3.389371 131 122 110
2.094368 -4.504098 3.49031 119 113 98
1.799923 -5.036017 4.086942 136 126 107
1.681153 -5.030445 4.084993 139 129 107
1.345368 -4.399545 3.401523 255 254 255
4.611959 -4.486117 3.237971 27 46 69
4.561996 -4.54123 3.297376 33 52 75
4.504576 -4.592379 3.352906 30 51 75
4.442749 -4.642867 3.407901 35 56 80
4.376177 -4.692132 3.461788 37 58 84
4.301221 -4.734809 3.509089 42 63 87
3.60704 -4.618047 3.41189 255 254 255
3.417737 -4.653399 3.455628 151 151 158
3.321182 -4.671154 3.477648 136 145 155
3.223869 -4.690566 3.501427 117 129 138
2.663234 -4.378844 3.195629 191 191 174
2.571319 -4.379093 3.199182 154 151 139
2.479989 -4.389555 3.213391 141 135 124
2.388019 -4.406526 3.234427 138 131 119
2.294737 -4.426984 3.259156 138 129 117
2.199587 -4.453513 3.290297 139 130 116
2.1013 -4.491884 3.333932 132 121 108
1.99666 -4.555665 3.404358 127 118 104
4.562588 -4.507829 3.126028 31 52 76
4.515246 -4.565326 3.184787 34 55 79
4.459142 -4.61717 3.238253 36 59 84
4.397636 -4.666943 3.289863 38 60 88
4.3303 -4.71372 3.338712 40 65 91
4.281094 -4.792019 3.418173 55 76 99
4.384419 -5.115115 3.734941 162 178 183
4.290286 -5.153758 3.776693 164 181 190
4.191652 -5.189448 3.81568 166 185 194
4.096552 -5.236594 3.865903 154 167 179
3.998434 -5.284596 3.917084 107 124 148
3.426149 -4.761511 3.418948 255 254 255
3.319438 -4.75355 3.414925 255 254 255
3.223348 -4.777647 3.442317 154 156 158
3.125796 -4.802702 3.470715 132 142 150
3.022986 -4.813093 3.484756 118 132 138
2.910545 -4.778611 3.45463 109 123 130
2.480258 -4.50553 3.199349 188 184 164
2.3864 -4.503325 3.200569 153 149 133
2.29248 -4.513421 3.213994 140 133 120
2.197705 -4.526343 3.230254 137 128 116
2.101082 -4.549052 3.25629 134 125 111
2.001561 -4.581316 3.29191 136 127 113
1.898594 -4.620149 3.334172 137 128 114
1.787587 -4.684137 3.40168 130 121 107
4.518298 -4.532255 3.021969 36 59 84
4.47295 -4.591676 3.07959 36 60 87
4.417854 -4.644024 3.130909 37 62 89
4.357312 -4.694077 3.180269 43 67 96
4.296934 -4.749483 3.234661 52 74 104
4.357689 -5.16848 3.626978 144 166 186
4.273429 -5.22259 3.681028 151 173 189
4.182486 -5.271608 3.73053 158 179 193
4.08725 -5.319069 3.778723 163 183 191
3.989167 -5.36761 3.828038 165 183 192
3.886165 -5.412839 3.874415 148 165 178
3.776372 -5.449304 3.912788 150 167 181
3.123712 -4.885747 3.406107 254 253 254
3.026622 -4.921514 3.443357 181 182 181
2.703611 -4.890493 3.426021 97 102 103
2.594843 -4.847813 3.38983 86 89 89
2.193949 -4.630581 3.200011 148 141 126
2.098291 -4.632393 3.205234 138 131 117
2.000819 -4.6475 3.223043 139 130 116
1.900145 -4.67564 3.253242 139 130 116
1.794669 -4.717786 3.296807 135 127 113
1.68379 -4.770167 3.350209 134 125 110
4.479021 -4.559833 2.925337 38 61 88
4.431735 -4.616468 2.977731 40 66 94
4.377681 -4.669367 3.027035 42 68 98
4.32308 -4.726659 3.080289 46 72 104
4.169251 -5.345502 3.63929 148 172 192
4.077185 -5.399249 3.690767 141 163 185
3.979212 -5.448319 3.738283 157 176 192
3.87663 -5.494564 3.783444 160 183 196
3.770225 -5.539198 3.827308 165 186 198
3.651954 -5.55955 3.849902 169 188 197
2.933469 -5.088524 3.455505 255 254 255
2.713109 -5.073629 3.450386 178 174 167
2.604805 -5.078322 3.458609 104 103 98
1.997231 -4.735398 3.174617 154 150 132
1.897255 -4.757284 3.197904 139 132 118
1.79437 -4.786451 3.227807 140 131 117
1.687379 -4.824772 3.266048 137 128 114
1.575729 -4.870747 3.311306 137 128 114
4.442774 -4.588599 2.833722 42 66 95
4.394175 -4.643178 2.881888 42 68 98
4.34306 -4.699396 2.931539 46 74 106
4.297195 -4.768651 2.992061 60 85 118
3.964199 -5.516986 3.639924 149 175 195
3.86412 -5.568272 3.687229 147 171 196
3.755679 -5.606823 3.724037 151 173 193
3.642588 -5.639455 3.755994 160 180 194
3.522922 -5.658184 3.776396 164 184 194
3.398623 -5.664818 3.786702 166 185 194
3.273336 -5.668995 3.794961 147 163 178
2.386543 -5.309943 3.523474 112 107 98
1.787759 -4.887274 3.187146 159 151 133
1.68249 -4.915433 3.215011 140 133 121
1.576708 -4.938486 3.238561 139 130 118
1.46618 -4.972523 3.271616 137 128 116
1.349606 -5.018112 3.314704 138 130 120
1.225189 -5.076973 3.369357 135 127 117
4.409829 -4.619215 2.747169 42 69 99
4.360791 -4.6729 2.792319 49 77 108
4.315607 -4.737014 2.845731 55 82 116
4.359563 -5.093895 3.131815 255 254 255
3.930768 -5.542444 3.509773 254 253 254
3.838917 -5.60958 3.567395 253 253 254
3.736658 -5.660749 3.612539 156 184 202
3.625979 -5.697074 3.646033 155 180 197
3.511252 -5.727899 3.675246 145 168 191
3.391222 -5.74665 3.694926 157 180 193
3.266373 -5.750346 3.70265 163 182 192
3.142767 -5.760812 3.715785 159 173 179
3.026845 -5.818615 3.766796 132 141 145
2.383944 -5.37529 3.433768 255 255 247
1.569775 -5.036635 3.191645 165 156 139
1.463614 -5.054174 3.20982 140 135 125
1.352893 -5.082489 3.236858 138 132 123
1.235759 -5.123806 3.274622 140 133 124
1.112285 -5.174624 3.320288 137 131 122
0.9800204 -5.238544 3.376852 129 122 111
4.379762 -4.651458 2.665014 48 78 109
4.3307 -4.704865 2.707793 52 82 115
4.28882 -4.773638 2.762064 65 94 127
4.322837 -5.120605 3.026458 255 254 255
3.981267 -5.492542 3.324381 255 253 255
3.895002 -5.558589 3.378268 255 254 255
3.804082 -5.62358 3.431523 254 253 254
3.705446 -5.678835 3.477621 255 254 255
3.601228 -5.727908 3.519198 255 254 255
3.490509 -5.765712 3.552395 164 193 200
3.376866 -5.801503 3.584162 150 178 194
3.253372 -5.804979 3.591562 147 171 189
3.125339 -5.786816 3.582565 161 175 181
3.013778 -5.858038 3.641385 144 150 155
2.898874 -5.93797 3.707002 138 141 140
2.776942 -5.999669 3.758928 122 124 122
1.233369 -5.206357 3.210648 146 142 135
1.11613 -5.241839 3.242317 137 132 122
0.9922465 -5.288115 3.282507 135 130 121
0.861397 -5.343566 3.32999 133 125 115
4.355691 -4.689857 2.589994 51 81 116
4.306973 -4.743782 2.631098 60 90 125
4.027261 -5.444868 3.151793 255 254 255
3.945313 -5.507923 3.200823 254 253 255
3.859444 -5.571033 3.250044 254 253 254
3.76838 -5.630908 3.297114 255 254 255
3.67212 -5.686669 3.341393 254 253 255
3.57083 -5.737615 3.382365 255 254 255
3.466106 -5.787632 3.422795 255 254 255
3.357285 -5.833819 3.460597 255 253 255
3.228082 -5.803358 3.443446 165 190 204
3.106334 -5.800597 3.446151 156 166 173
2.995837 -5.864381 3.496817 147 154 157
2.882901 -5.939556 3.55586 144 147 147
2.765791 -6.01967 3.618657 139 139 136
2.642987 -6.089777 3.674397 133 131 126
1.103222 -5.353645 3.198653 170 167 152
0.9872266 -5.379046 3.221617 138 134 124
0.8670233 -5.410649 3.249254 135 129 120
0.7418975 -5.448741 3.281801 129 122 111
0.603209 -5.509568 3.331406 119 110 98
0.4466558 -5.59726 3.401242 108 98 84
4.284804 -4.783355 2.557081 72 103 140
3.824738 -5.58137 3.126152 255 254 255
3.735164 -5.640254 3.170316 255 254 255
3.641363 -5.697283 3.213362 255 254 255
3.543346 -5.751931 3.254929 255 254 255
3.440568 -5.801494 3.29317 254 253 255
3.334532 -5.850034 3.330832 255 254 255
3.19966 -5.782139 3.289211 175 205 214
3.087491 -5.810504 3.31318 154 164 170
2.979347 -5.874396 3.361526 149 154 155
2.867556 -5.940034 3.411221 148 149 148
2.751825 -6.006069 3.461344 146 145 143
2.632507 -6.078151 3.515782 143 141 134
2.509015 -6.155437 3.573977 140 136 128
2.380867 -6.237243 3.635476 135 132 124
2.247921 -6.312295 3.692498 128 124 116
0.8408028 -5.552299 3.222592 168 170 152
0.7329626 -5.549257 3.224702 127 124 114
0.6131462 -5.571503 3.244744 122 115 104
0.4761238 -5.624716 3.286843 116 108 94
0.3232265 -5.701252 3.345669 110 99 86
3.708116 -5.662133 3.057215 151 180 207
3.61547 -5.718032 3.097513 255 254 255
3.520572 -5.7774 3.140175 255 254 255
3.421208 -5.83336 3.180778 255 254 255
3.175218 -5.772959 3.150858 177 208 219
3.068704 -5.816001 3.183273 156 164 170
2.963037 -5.880651 3.229821 154 158 160
2.853162 -5.942297 3.274566 151 152 150
2.739769 -6.00528 3.320326 148 148 143
2.623109 -6.075188 3.370756 145 143 136
2.502411 -6.147814 3.423126 144 140 132
2.377434 -6.223563 3.477712 145 142 132
2.247723 -6.309844 3.53939 144 140 128
2.112612 -6.401481 3.604793 139 135 126
3.594632 -5.750586 2.993466 255 254 255
3.501351 -5.81132 3.034965 158 186 202
3.404119 -5.870468 3.075632 157 185 204
3.15383 -5.772848 3.024806 174 198 207
3.051184 -5.823729 3.060544 163 168 169
2.946847 -5.882785 3.101438 162 165 165
2.839655 -5.946399 3.14528 156 156 151
2.728604 -6.008071 3.188068 154 152 146
2.614413 -6.076358 3.235096 152 148 141
2.496376 -6.147574 3.284101 150 147 137
2.374251 -6.224231 3.336654 150 146 136
2.247494 -6.30915 3.394532 149 144 133
2.115483 -6.400436 3.456582 150 144 133
3.386073 -5.901171 2.970207 255 254 255
3.134696 -5.778995 2.908101 174 188 196
3.034715 -5.832973 2.943972 169 170 170
2.932369 -5.891561 2.982661 167 167 164
2.82712 -5.953572 3.023488 166 164 158
2.718409 -6.016043 3.064723 162 158 151
2.60638 -6.081941 3.108116 158 153 144
2.490732 -6.150926 3.153475 157 152 141
2.371237 -6.231015 3.205547 155 150 139
2.247058 -6.317445 3.26155 154 149 138
2.118001 -6.403642 3.31761 153 148 137
3.11721 -5.789183 2.79857 178 179 181
3.018662 -5.84047 2.831264 172 171 171
2.917989 -5.896651 2.866784 172 169 165
2.814644 -5.956549 2.904493 172 166 159
2.708316 -6.020166 2.944406 170 164 153
2.598474 -6.083815 2.984478 167 160 148
2.485413 -6.156749 3.02988 166 159 145
2.368333 -6.233735 3.077714 163 156 143
2.246808 -6.318494 3.13008 161 154 141
2.120071 -6.413212 3.188235 159 152 141
3.099722 -5.795546 2.691431 191 187 181
3.002706 -5.844466 2.721339 184 181 173
2.904157 -5.901265 2.755493 178 173 164
2.802669 -5.959233 2.790387 178 170 162
2.698003 -6.01667 2.825127 176 169 156
2.590675 -6.081679 2.863997 174 165 151
2.479948 -6.150502 2.905029 175 164 149
2.365528 -6.228578 2.951125 174 164 149
2.246768 -6.311245 2.999835 172 164 147
2.122066 -6.422297 3.063859 166 159 145
1.33131 -2.821156 4.433116 145 124 102
2.15867 -3.234128 4.424698 132 113 88
2.069266 -3.19991 4.425696 136 114 91
1.980095 -3.166276 4.428195 142 120 94
1.891368 -3.132611 4.430078 141 118 93
1.803172 -3.098856 4.431065 144 121 96
1.715508 -3.06511 4.431451 137 116 92
1.540405 -2.999182 4.436715 129 106 79
1.453091 -2.96663 4.440323 141 122 99
1.365462 -2.934637 4.446001 144 122 101
1.279984 -2.9014 4.445368 144 122 100
1.197734 -2.866694 4.436476 145 121 99
1.120218 -2.830222 4.416654 151 127 104
0.6967231 -2.673079 4.436402 136 111 87
0.6384282 -2.634589 4.387863 110 88 68
0.5830336 -2.596976 4.338579 138 115 91
3.538142 -3.865875 4.404739 111 103 88
2.304828 -3.39942 4.443517 131 113 92
2.212531 -3.364505 4.446397 138 119 94
2.121055 -3.328032 4.44401 140 119 95
2.029853 -3.292728 4.444601 143 122 98
1.939567 -3.256589 4.441851 137 114 89
1.84918 -3.222007 4.443579 139 116 91
1.759577 -3.186983 4.443212 122 100 78
1.670511 -3.152096 4.442637 118 96 74
1.582148 -3.11717 4.44119 142 121 95
1.493414 -3.083369 4.443304 147 128 105
1.404794 -3.049937 4.446328 143 123 99
1.316392 -3.016713 4.4497 151 130 106
1.231514 -2.981324 4.443143 144 123 101
1.147569 -2.946118 4.436076 143 122 100
1.067929 -2.909188 4.419468 144 120 97
0.9900421 -2.872441 4.401453 147 123 98
1.257865 -2.622283 3.406459 249 248 249
0.5946885 -2.703729 4.360033 129 105 84
0.5474632 -2.662446 4.295768 102 88 74
3.535633 -3.989151 4.444327 109 102 89
3.428967 -3.9384 4.421235 122 114 101
2.364016 -3.536661 4.463592 136 119 102
2.269689 -3.49764 4.458407 132 117 97
2.17582 -3.460464 4.457551 140 120 98
2.08274 -3.422694 4.454346 143 122 98
1.989981 -3.386138 4.453968 142 121 95
1.897765 -3.349744 4.453457 137 115 92
1.806486 -3.3128 4.450562 103 84 63
1.715837 -3.276117 4.447701 145 121 94
1.625106 -3.240651 4.448086 134 117 92
1.53557 -3.204508 4.445495 141 122 97
1.445853 -3.16943 4.445857 145 124 100
1.357008 -3.134155 4.444813 146 125 101
1.268305 -3.099406 4.444995 140 119 97
1.180569 -3.064464 4.443688 145 123 101
1.095531 -3.028273 4.436379 144 123 101
1.014454 -2.990476 4.42085 140 119 97
0.9334646 -2.953741 4.407993 143 120 97
1.225003 -2.67588 3.387857 252 251 249
3.529318 -4.112785 4.473286 110 105 95
3.419719 -4.059026 4.4482 119 112 101
3.313432 -4.009039 4.42906 127 117 103
2.426251 -3.680565 4.483763 130 115 99
2.329515 -3.636971 4.470936 135 119 101
2.233536 -3.596807 4.465673 137 119 100
2.138344 -3.557033 4.460598 137 118 98
2.043014 -3.520738 4.464063 141 122 97
1.948284 -3.483919 4.465684 126 104 83
1.85552 -3.443896 4.457686 104 87 65
1.76326 -3.405003 4.451937 147 125 97
1.670986 -3.367721 4.450093 133 112 88
1.579293 -3.330702 4.448331 129 110 87
1.487451 -3.29482 4.449456 145 123 100
1.396759 -3.258352 4.448067 146 125 101
1.306851 -3.221896 4.445957 144 123 101
1.217108 -3.186045 4.445149 113 92 70
1.127468 -3.150733 4.445547 141 119 98
1.040852 -3.113797 4.43913 141 119 100
0.9588829 -3.074689 4.423021 132 111 91
0.8809314 -3.034436 4.400304 113 93 74
0.8067955 -2.993564 4.372445 138 115 91
0.5075191 -2.783874 4.151989 120 100 81
3.342263 -3.648008 3.326979 107 97 91
3.407209 -4.179801 4.465463 121 116 107
3.301003 -4.133351 4.456323 121 114 103
3.19662 -4.089241 4.450812 121 112 99
2.590986 -3.856837 4.471777 131 117 100
2.491516 -3.822051 4.482837 129 114 98
2.392299 -3.780268 4.477924 133 118 102
2.293961 -3.73825 4.47169 137 120 105
2.1964 -3.697237 4.46702 138 120 101
2.098855 -3.659938 4.470696 136 118 100
2.001985 -3.621746 4.471756 111 96 76
1.908055 -3.577201 4.455876 147 127 101
1.813014 -3.538641 4.454465 137 118 93
1.718342 -3.500769 4.454271 130 111 86
1.624728 -3.462275 4.451725 141 120 96
1.531565 -3.424327 4.450004 143 122 96
1.438569 -3.387173 4.449918 143 122 97
1.346736 -3.349511 4.447646 142 121 97
1.255642 -3.311984 4.445012 143 124 100
1.16495 -3.27492 4.443061 144 122 100
1.074047 -3.238755 4.443323 141 119 98
0.9876854 -3.199783 4.433188 115 94 78
0.908062 -3.157319 4.40914 134 113 91
0.8380083 -3.110612 4.366949 102 87 73
0.7789501 -3.060081 4.306276 93 78 64
1.061868 -2.776958 3.414971 255 253 234
3.437595 -3.713548 3.201522 114 106 103
3.37717 -3.705621 3.23598 114 105 102
3.317271 -3.700858 3.276643 118 107 104
3.257405 -3.699097 3.323587 116 108 103
3.283106 -4.251697 4.462969 115 111 103
2.743225 -3.498015 3.336037 249 248 250
2.55834 -3.949537 4.441177 138 122 104
2.457918 -3.92081 4.465765 138 123 107
2.357389 -3.880637 4.466397 136 122 106
2.257612 -3.838938 4.463184 135 118 103
2.158082 -3.800394 4.466391 129 113 95
1.962073 -3.717827 4.458713 140 122 101
1.86468 -3.678429 4.458318 135 120 98
1.767343 -3.640426 4.460808 142 123 98
1.671946 -3.599723 4.455982 138 116 93
1.576421 -3.560861 4.455132 143 122 98
1.482201 -3.521196 4.451492 143 120 95
1.388148 -3.482533 4.449818 139 116 91
1.295469 -3.443254 4.445684 138 117 93
1.204015 -3.403764 4.440073 142 121 97
1.112277 -3.365608 4.437505 115 97 78
1.021446 -3.327491 4.43425 141 120 98
0.9375644 -3.284803 4.415514 136 118 98
0.8646731 -3.235932 4.374487 94 83 72
0.8075469 -3.179467 4.304168 99 84 72
0.7610455 -3.120536 4.219678 108 87 71
3.4767 -3.779153 3.129353 160 159 148
3.415014 -3.768354 3.157382 121 118 116
3.353298 -3.759199 3.188668 116 109 109
3.294131 -3.75716 3.231903 116 108 106
3.231531 -3.751386 3.27054 130 121 115
3.171872 -3.755663 3.326585 125 117 111
2.423417 -4.022123 4.448028 142 126 106
2.321351 -3.985206 4.456957 133 118 102
2.119548 -3.901081 4.452731 135 118 96
2.018933 -3.862563 4.457355 137 121 101
1.919086 -3.822833 4.458985 137 121 101
1.819515 -3.783887 4.461936 129 111 90
1.720967 -3.743789 4.461804 135 116 93
1.623518 -3.702935 4.45931 139 117 94
1.526747 -3.662397 4.456893 142 121 97
1.430721 -3.622053 4.454265 141 118 92
1.335537 -3.581793 4.451128 140 119 94
1.242334 -3.540331 4.444048 127 106 82
1.151963 -3.497187 4.431399 107 89 70
1.060782 -3.456433 4.424096 139 116 93
0.9719566 -3.414765 4.413115 95 83 70
0.8987913 -3.361838 4.367495 100 87 73
0.856657 -3.289252 4.258455 109 92 77
0.8092207 -3.226571 4.173115 107 91 75
0.9143336 -2.872129 3.392438 250 249 249
0.8450464 -2.848061 3.400451 251 250 251
4.135159 -4.853936 4.450934 98 102 106
3.33331 -3.820332 3.15231 127 124 122
3.270877 -3.813504 3.186886 122 115 114
3.207842 -3.808226 3.224772 131 123 119
3.144609 -3.806052 3.268526 133 125 120
3.083212 -3.813612 3.328826 129 121 117
2.921273 -4.383319 4.500736 124 117 104
2.284273 -4.091913 4.444988 109 96 83
2.181264 -4.051151 4.447691 132 116 97
2.078478 -4.011848 4.452916 137 123 103
1.975829 -3.973437 4.459678 141 125 105
1.87411 -3.932983 4.461976 140 123 102
1.773611 -3.890801 4.460168 135 117 96
1.673594 -3.849379 4.459395 137 118 96
1.574543 -3.80758 4.457201 139 119 95
1.475954 -3.766477 4.455941 140 119 95
1.378487 -3.724931 4.453014 132 111 87
1.283113 -3.681858 4.445694 107 89 68
1.19214 -3.635013 4.428102 134 111 86
1.10428 -3.586973 4.405953 105 91 73
1.02335 -3.534416 4.370251 100 86 70
0.9703854 -3.459608 4.272434 110 94 76
0.9199338 -3.389475 4.181331 113 97 79
0.8628857 -3.33033 4.115454 115 98 83
0.796121 -3.282231 4.077263 151 133 106
0.7194293 -3.243105 4.063106 153 132 108
0.7980484 -2.91156 3.392905 249 248 249
4.01935 -4.953796 4.463718 100 106 111
3.325793 -3.908048 3.151578 190 189 177
3.253276 -3.882626 3.159518 138 134 130
3.186279 -3.870433 3.186383 134 128 125
3.120247 -3.863272 3.221263 135 127 122
3.054691 -3.861472 3.265072 139 130 126
2.991074 -3.872046 3.328893 127 119 113
2.994824 -4.513516 4.435591 127 121 110
2.887383 -4.476946 4.449248 123 118 105
2.455898 -3.709609 3.431024 249 248 249
2.376588 -3.716189 3.499169 249 248 249
2.140035 -4.170122 4.453533 144 129 107
2.035319 -4.129407 4.458071 142 125 108
1.931084 -4.088501 4.461933 142 126 108
1.827997 -4.04553 4.461402 139 122 103
1.724933 -4.004468 4.464158 134 117 96
1.623391 -3.961272 4.46213 136 116 96
1.523528 -3.916524 4.45622 137 117 95
1.424391 -3.872499 4.451039 110 92 71
1.32748 -3.826787 4.441349 128 107 83
1.23377 -3.778677 4.425218 105 90 68
1.149012 -3.7219 4.387692 95 81 63
1.081005 -3.650269 4.312487 117 102 82
1.028903 -3.568796 4.208876 115 97 78
0.9756713 -3.496293 4.121589 116 98 79
0.9081417 -3.442415 4.076745 164 141 114
0.8291442 -3.400978 4.061624 156 135 109
0.7438931 -3.365566 4.061401 150 131 106
0.6574348 -3.331528 4.064417 154 135 110
0.7460852 -2.978738 3.390836 250 249 248
3.884433 -5.028417 4.439148 102 111 115
3.248997 -3.984982 3.174533 199 196 182
3.169424 -3.945676 3.164697 143 141 137
3.09809 -3.92692 3.182672 135 129 126
3.030119 -3.920326 3.218134 138 130 126
2.962959 -3.921759 3.266096 137 129 122
2.896637 -3.935419 3.333366 127 120 113
2.350232 -3.768382 3.433059 249 248 249
2.097784 -4.289832 4.452329 161 140 112
1.989933 -4.253897 4.467188 141 126 104
1.883803 -4.210952 4.469481 139 124 106
1.779261 -4.165014 4.465827 130 114 96
1.675354 -4.119989 4.463226 131 113 94
1.573805 -4.071802 4.453884 126 110 93
1.473907 -4.023109 4.442596 105 90 74
1.37534 -3.974782 4.430999 119 103 84
1.280256 -3.923529 4.41228 105 90 72
1.20026 -3.85426 4.354019 105 89 71
1.142242 -3.763565 4.245991 111 93 72
1.090063 -3.676019 4.139119 114 96 75
1.023104 -3.612994 4.082151 166 142 113
0.946134 -3.564445 4.05552 163 139 110
0.8643012 -3.522697 4.043249 155 133 105
0.778401 -3.485706 4.041475 153 132 106
0.6891669 -3.451957 4.047238 157 136 110
0.1250608 -3.532479 4.561425 141 122 98
3.08236 -4.011118 3.170051 148 146 141
3.009467 -3.992802 3.189112 140 134 129
2.938789 -3.985308 3.223302 135 127 121
2.868318 -3.985201 3.26866 132 123 115
2.797935 -3.996879 3.331997 127 119 111
2.492932 -4.623694 4.488167 120 115 102
2.242989 -3.812784 3.408783 249 248 249
1.940861 -4.391367 4.489293 154 135 108
1.834218 -4.339645 4.479039 136 120 100
1.732256 -4.278215 4.450905 119 104 88
1.631692 -4.219932 4.426682 107 92 78
1.531895 -4.165275 4.407514 123 107 89
1.433134 -4.112672 4.39082 112 99 84
1.343915 -4.046848 4.347732 100 88 74
1.273252 -3.957992 4.257412 105 92 71
1.20843 -3.871035 4.166226 111 96 74
1.142635 -3.794738 4.09198 161 137 108
1.065834 -3.738583 4.055665 163 139 110
0.9812942 -3.694467 4.04277 164 140 109
0.8931727 -3.655629 4.040266 163 139 110
0.8031867 -3.619395 4.042951 157 135 105
0.2485478 -3.720725 4.556292 140 125 101
0.1568422 -3.673099 4.542655 137 120 97
0.0667243 -3.625838 4.528552 140 121 97
-0.02256989 -3.579417 4.515201 143 122 96
2.992199 -4.080188 3.176987 148 146 139
2.916768 -4.058969 3.192786 134 128 121
2.843296 -4.049558 3.224407 133 125 117
2.769901 -4.048774 3.268416 134 127 118
2.69702 -4.06868 3.341942 127 119 111
2.568003 -4.769093 4.431175 115 110 99
2.45505 -4.758896 4.485944 123 118 105
2.340581 -4.724356 4.506546 125 118 104
1.795478 -4.428209 4.414814 119 104 86
1.693806 -4.365293 4.386633 123 106 89
1.595337 -4.301059 4.354581 103 93 79
1.499038 -4.23862 4.323783 96 87 77
1.412153 -4.163416 4.268789 106 95 80
1.336535 -4.076582 4.190098 108 94 78
1.265464 -3.992633 4.112768 147 128 106
1.186532 -3.929025 4.069602 155 133 105
1.103913 -3.875366 4.04305 161 138 109
1.017759 -3.829226 4.029513 164 140 109
0.9312807 -3.785439 4.019567 164 140 109
0.8233175 -3.764983 4.056475 168 143 115
0.383688 -3.91287 4.540095 139 122 99
0.2880342 -3.863904 4.528327 141 126 102
0.1972611 -3.81274 4.510386 138 121 98
0.1043863 -3.764814 4.498407 140 120 98
0.01451278 -3.716259 4.483674 133 114 90
-0.07383275 -3.668188 4.468701 123 103 82
2.897899 -4.150009 3.181651 148 145 135
2.820304 -4.126312 3.194922 130 124 117
2.744323 -4.115631 3.22495 134 126 118
2.668547 -4.118794 3.273684 135 127 119
2.591561 -4.139689 3.34724 127 120 110
2.416015 -4.873765 4.448452 120 114 103
2.299957 -4.844458 4.476648 122 118 104
2.184267 -4.801773 4.486436 127 119 103
2.011915 -3.952484 3.432538 249 248 249
1.669179 -4.411801 4.258135 97 87 73
1.575636 -4.340001 4.215343 101 90 77
1.486666 -4.266402 4.167424 101 90 77
1.405487 -4.185634 4.105186 132 116 99
1.317934 -4.125384 4.074587 153 136 111
1.227987 -4.073759 4.057125 153 132 106
1.136056 -4.028034 4.048847 152 132 104
1.051677 -3.974184 4.025092 163 141 110
0.9578985 -3.934941 4.026713 167 143 112
0.5327629 -4.104735 4.506899 136 117 91
0.4259353 -4.062033 4.511467 137 118 94
0.3259244 -4.013796 4.504511 141 124 99
0.2292616 -3.964076 4.493576 138 120 97
0.137521 -3.912025 4.476584 135 118 95
0.04555488 -3.861922 4.462373 117 99 80
-0.04133248 -3.809904 4.442581 107 91 73
-0.1318166 -3.761952 4.430427 142 121 97
-0.2310641 -3.720525 4.432284 142 119 95
4.032115 -5.2292 3.789045 164 184 194
3.925699 -5.185873 3.792984 105 121 143
2.800442 -4.226113 3.190694 149 144 135
2.720747 -4.200128 3.20194 134 127 119
2.64215 -4.1879 3.230232 134 126 118
2.563008 -4.188271 3.275002 135 127 117
2.481812 -4.203084 3.339463 131 124 113
2.143227 -4.90594 4.431244 111 106 94
2.029237 -4.84892 4.421845 124 115 101
1.893151 -4.01223 3.423921 222 209 207
1.554723 -4.382391 4.088523 114 101 85
1.462782 -4.319779 4.059602 149 132 109
1.366691 -4.271099 4.05089 147 131 109
1.269418 -4.227102 4.048852 150 133 108
1.172252 -4.1845 4.048545 158 139 113
0.6863015 -4.30408 4.474034 139 123 95
0.5754799 -4.262279 4.482397 138 122 95
0.4690611 -4.216156 4.482747 135 116 90
0.3651781 -4.168488 4.479696 137 119 92
0.2621949 -4.121145 4.476558 133 114 90
0.1654718 -4.069547 4.464454 110 95 75
0.07470036 -4.014832 4.445018 124 106 85
-0.01010919 -3.957682 4.419118 145 126 102
-0.09459758 -3.902626 4.395729 141 124 101
-0.1980054 -3.8621 4.401579 138 119 96
4.018618 -5.350986 3.762033 158 180 195
3.910491 -5.306163 3.765503 161 182 194
2.697774 -4.297235 3.190535 152 148 136
2.616721 -4.273322 3.204882 135 127 118
2.535777 -4.261253 3.233537 135 128 118
2.453567 -4.259041 3.274821 135 127 117
2.368646 -4.272438 3.336484 131 124 113
1.994859 -4.907156 4.30613 109 105 95
1.885346 -4.8425 4.286291 98 94 82
1.782375 -4.760836 4.242325 108 98 85
1.765869 -4.088434 3.435715 249 247 249
1.409323 -4.438941 4.051469 149 132 108
1.305113 -4.401981 4.062381 149 131 108
1.196167 -4.373604 4.086234 154 137 114
0.8348621 -4.526239 4.46457 131 117 95
0.7283297 -4.473355 4.457411 138 123 99
0.6179276 -4.427291 4.460594 137 120 94
0.5107259 -4.378371 4.4586 136 119 92
0.4040525 -4.330143 4.457164 132 113 86
0.2977855 -4.282651 4.456403 106 89 66
