ply
format ascii 1.0
comment author: PIX4Dcatch
element vertex 1185
property float x
property float y
property float z
property uchar red
property uchar green
property uchar blue
end_header
-0.3900146 -2.110711 3.923981 220 217 207
-0.4597059 -2.166052 3.922151 220 218 208
-0.5301372 -2.222825 3.922603 217 213 203
-0.6011345 -2.280176 3.923388 204 198 189
-0.670612 -2.332453 3.913678 171 156 144
-0.7348363 -2.371614 3.879729 157 148 140
-0.7682548 -2.340983 3.723065 97 33 28
-0.8934558 -2.520389 3.937742 161 157 149
-0.954668 -2.553714 3.894487 194 198 189
-0.9294485 -2.41828 3.58066 180 179 177
-0.9800554 -2.442071 3.534653 130 131 132
-1.277859 -2.839226 3.964669 206 206 197
-1.349039 -2.891177 3.950341 206 205 196
-1.419912 -2.942756 3.935673 199 197 187
1.181285 -0.8637709 3.705432 208 215 218
1.125804 -0.9088303 3.705828 184 193 193
1.069001 -0.9540033 3.703851 182 191 193
1.012694 -0.9996037 3.703932 161 170 171
0.956924 -1.045784 3.706529 164 170 171
0.900934 -1.092443 3.709872 177 180 184
0.8445935 -1.139584 3.713706 178 180 181
0.7891238 -1.187909 3.722227 199 218 228
0.7962129 -1.277007 3.957525 127 124 117
0.7334055 -1.329364 3.961319 182 175 164
0.6671954 -1.379692 3.953243 200 191 179
0.6023303 -1.431597 3.951782 207 198 184
0.5371535 -1.483872 3.950614 218 211 198
0.4718732 -1.536879 3.951054 218 213 202
0.4056063 -1.589299 3.948055 219 214 202
0.3387805 -1.64143 3.943216 222 217 207
0.2719397 -1.694386 3.940394 224 218 207
0.2047302 -1.74746 3.937127 220 217 205
0.1371344 -1.80041 3.932775 225 222 212
0.06924903 -1.853408 3.927961 224 221 211
0.001190335 -1.907861 3.926409 221 218 208
-0.06726704 -1.96254 3.924618 223 220 210
-0.1361538 -2.018299 3.924642 222 219 209
-0.2055155 -2.074412 3.924592 222 219 209
-0.2751823 -2.129711 3.921911 218 215 205
-0.345315 -2.185849 3.920375 219 215 205
-0.4157525 -2.241817 3.917804 215 211 201
-0.4869488 -2.299536 3.918057 212 207 196
-0.5582784 -2.356399 3.915917 200 192 182
-0.6285487 -2.409161 3.905728 156 140 130
-0.6902279 -2.438075 3.85362 116 109 107
-0.7287809 -2.411115 3.709318 100 34 33
-0.861138 -2.619417 3.960377 166 163 153
-0.9168434 -2.636087 3.889887 188 192 184
-0.8964025 -2.493378 3.57685 137 135 133
-0.9547109 -2.529887 3.550355 128 130 132
-1.164208 -2.863177 3.956634 201 202 191
-1.235297 -2.913959 3.93989 202 203 192
-1.302475 -2.957924 3.914085 203 202 193
-1.373992 -3.010198 3.90018 201 200 189
1.583832 -0.7347531 3.931553 231 221 211
1.517893 -0.7826961 3.918385 228 219 209
1.450069 -0.830398 3.901179 209 198 184
1.391493 -0.8788052 3.902692 176 159 148
1.247567 -0.9153769 3.719362 209 214 216
1.18522 -0.9603338 3.706061 206 212 215
1.126678 -1.006015 3.701447 212 219 222
1.070031 -1.052446 3.702042 205 214 215
1.014342 -1.099667 3.706203 194 199 203
0.9574772 -1.147076 3.708618 175 180 181
0.9006341 -1.195119 3.712511 164 167 167
0.8456197 -1.244951 3.723851 144 142 142
0.8451353 -1.332102 3.920859 122 120 112
0.7818 -1.384359 3.922307 172 165 154
0.716496 -1.435682 3.917987 197 188 174
0.6530254 -1.489404 3.922511 188 179 166
0.5886457 -1.54329 3.925724 209 202 191
0.5237666 -1.597763 3.929345 217 211 200
0.4577116 -1.651722 3.929623 222 217 205
0.3910167 -1.705685 3.928727 220 215 204
0.3239361 -1.760071 3.928075 221 216 204
0.2565256 -1.815148 3.928384 224 221 211
0.188365 -1.869425 3.925486 222 218 208
0.1198065 -1.923628 3.921684 220 217 207
0.0509489 -1.978139 3.918029 223 220 210
-0.01818524 -2.03384 3.916564 225 221 212
-0.08773805 -2.090073 3.915532 225 221 212
-0.157701 -2.146138 3.913361 224 220 211
-0.2280245 -2.202214 3.910546 221 218 208
-0.2985816 -2.257683 3.905918 220 216 206
-0.3695495 -2.314043 3.902555 219 216 204
-0.4412478 -2.372383 3.902339 214 209 197
-0.5135922 -2.43169 3.903118 202 195 182
-0.5846007 -2.484959 3.892664 158 144 131
-0.6296342 -2.457529 3.747027 167 189 189
-0.6890758 -2.484392 3.698014 91 92 92
-0.8345522 -2.742146 4.014084 180 178 171
-0.8632933 -2.572622 3.575929 144 151 152
-0.9287192 -2.622539 3.568192 128 131 133
-1.192755 -2.991136 3.91654 205 206 197
-1.259475 -3.032756 3.887568 204 202 192
1.650469 -0.7874771 3.927548 227 214 203
1.586761 -0.8361719 3.920015 226 217 205
1.521351 -0.8847858 3.909397 215 204 191
1.463132 -0.9343547 3.913097 183 168 154
1.326908 -0.9708011 3.755708 199 203 209
1.246154 -1.01326 3.705943 158 162 164
1.187376 -1.059802 3.702366 143 147 152
1.130263 -1.10714 3.703304 143 147 149
1.073378 -1.155069 3.705866 164 169 170
1.015698 -1.203269 3.707633 190 194 198
0.9578212 -1.251988 3.710145 200 202 204
0.9013081 -1.302221 3.718156 198 199 201
0.8928027 -1.386436 3.879389 117 118 110
0.8334342 -1.441969 3.89357 161 151 140
0.7702157 -1.495773 3.897543 201 192 178
0.7073303 -1.551074 3.905212 206 199 186
0.6415592 -1.604408 3.903828 219 214 203
0.5752258 -1.657815 3.901634 226 221 212
0.5088772 -1.712103 3.901253 225 220 211
0.4423878 -1.767366 3.902666 226 223 213
0.3757216 -1.823918 3.906466 227 224 214
0.3083081 -1.880661 3.909384 226 222 213
0.2399497 -1.936579 3.908962 229 225 216
0.1709641 -1.99201 3.906446 225 221 211
0.1018563 -2.049644 3.908321 227 223 214
0.03222907 -2.108496 3.91185 228 224 216
-0.03813587 -2.164446 3.908052 228 224 215
-0.1088152 -2.220186 3.90328 221 217 209
-0.1801154 -2.281008 3.908053 225 221 212
-0.2516658 -2.338087 3.904584 225 222 210
-0.5817456 -2.512114 3.702163 98 32 25
-0.6477382 -2.55707 3.68291 93 39 34
-0.8312682 -2.659681 3.582572 133 136 134
1.723307 -0.8418313 3.931188 228 217 206
1.660577 -0.8914941 3.926903 224 215 205
1.594518 -0.940949 3.916913 220 213 202
1.534385 -0.9913911 3.918268 196 183 168
1.454254 -1.038216 3.880785 164 151 140
1.310314 -1.068063 3.708909 212 216 218
1.250606 -1.115387 3.704932 197 204 206
1.192116 -1.163401 3.70423 206 214 217
1.134764 -1.212322 3.707087 182 189 191
1.07618 -1.261336 3.70816 132 142 145
1.017192 -1.310743 3.709344 88 93 95
0.9599738 -1.3619 3.716723 73 74 75
-0.05595666 -2.630851 4.542538 209 204 201
-0.1430632 -2.702539 4.54184 207 201 196
-0.2307132 -2.773969 4.53978 198 190 186
-0.3183947 -2.841454 4.530069 197 191 186
-0.4071278 -2.914771 4.52992 197 193 188
-0.498464 -2.999051 4.546743 203 205 201
-0.5905312 -3.081137 4.558175 210 213 212
-0.5380093 -2.583178 3.682492 98 34 31
-0.7423714 -2.734129 3.647649 149 147 145
-0.7967072 -2.746237 3.584388 121 126 125
-1.244324 -3.620681 4.555795 192 194 188
-1.321322 -3.655089 4.499382 122 116 109
-1.374913 -3.640261 4.385413 145 134 119
-1.436664 -3.649857 4.305494 61 50 45
1.382302 -1.126178 3.723498 183 191 197
1.317726 -1.173315 3.711566 217 222 228
1.257379 -1.221924 3.708547 214 223 225
1.198201 -1.271388 3.708791 220 225 226
1.138765 -1.321281 3.709419 219 228 230
1.078873 -1.371531 3.710003 213 220 222
1.019491 -1.422757 3.71309 188 191 191
1.187557 -1.764532 4.572728 169 174 171
1.10056 -1.825482 4.552097 175 177 171
1.020296 -1.892997 4.553188 181 179 174
0.9390317 -1.96056 4.55288 192 191 186
0.8566648 -2.027834 4.550414 201 199 195
0.7739484 -2.095699 4.548485 208 205 201
0.6918851 -2.16616 4.552156 210 208 202
0.6084909 -2.235983 4.552712 211 207 201
0.5247089 -2.306959 4.554749 213 209 204
0.4397928 -2.37712 4.553642 214 209 204
0.3542735 -2.447587 4.552187 214 210 206
0.268512 -2.520155 4.55412 217 212 209
0.1819453 -2.592673 4.554766 213 211 207
0.09457974 -2.66419 4.552437 211 209 207
0.00669618 -2.736476 4.550711 211 209 205
-0.08175893 -2.810385 4.551031 206 201 196
-0.170848 -2.884064 4.549995 199 193 188
-0.2602272 -2.95444 4.542638 203 197 192
-0.3506558 -3.031186 4.545082 202 200 196
-0.4424995 -3.11258 4.553717 209 213 211
-0.5340896 -3.18763 4.551409 216 219 217
-0.4949813 -2.66231 3.672399 98 29 26
-0.700458 -2.810144 3.630586 137 136 134
-0.7634881 -2.843449 3.596276 135 140 139
-1.194071 -3.732917 4.542795 197 198 195
-1.263429 -3.743155 4.457922 124 118 113
-1.317938 -3.723561 4.341912 116 106 92
2.099215 -1.123296 4.527435 197 186 179
2.027576 -1.186492 4.532418 182 166 159
1.952277 -1.249527 4.53204 179 163 155
1.4589 -1.187143 3.741933 189 196 198
1.385491 -1.232656 3.715156 178 184 185
1.323558 -1.281878 3.710497 181 186 189
1.263537 -1.332253 3.710412 201 206 207
1.2041 -1.383494 3.712571 212 217 218
1.142673 -1.434308 3.711256 194 201 200
1.083036 -1.48686 3.715311 191 193 193
1.030399 -1.545582 3.739331 168 171 173
1.170669 -1.903774 4.528015 176 178 173
1.089986 -1.972174 4.529032 183 183 178
1.008967 -2.041454 4.531037 193 190 186
0.9265071 -2.110245 4.530228 204 201 197
0.8443816 -2.18092 4.533005 210 208 203
0.7608033 -2.250875 4.532568 208 206 200
0.6765788 -2.321199 4.531841 211 209 203
0.5920127 -2.392612 4.532444 214 212 205
0.5066146 -2.464019 4.531879 215 210 207
0.421035 -2.537475 4.534456 214 210 206
0.334744 -2.61177 4.537433 212 210 206
0.2473357 -2.684671 4.536545 213 210 208
0.1593137 -2.75803 4.535563 210 207 205
0.07081197 -2.833823 4.537944 213 208 206
-0.01847033 -2.910208 4.540219 206 199 196
-0.1085346 -2.987169 4.54236 196 190 185
-0.1992867 -3.063007 4.541682 197 193 189
-0.2904715 -3.13694 4.537248 200 197 195
-0.3834734 -3.222028 4.548766 206 207 206
-0.4513971 -2.746256 3.665983 100 33 31
-0.6575199 -2.887068 3.612363 133 137 137
-0.7277893 -2.941153 3.604157 121 126 126
-1.203793 -3.828907 4.412379 165 156 140
-1.263274 -3.814741 4.306116 108 99 87
2.26138 -1.132321 4.522593 216 208 200
2.192965 -1.196847 4.532736 208 197 190
2.123337 -1.262097 4.542411 189 173 165
2.04642 -1.326325 4.540986 183 168 160
1.454138 -1.293437 3.716372 187 192 193
1.392202 -1.343879 3.713256 175 179 181
1.331157 -1.395138 3.712564 171 174 176
1.269365 -1.446552 3.711134 183 187 188
1.207374 -1.498388 3.710096 200 204 204
1.146669 -1.551699 3.713014 210 214 215
1.087715 -1.607259 3.721689 205 226 229
1.243368 -1.984738 4.507351 168 169 166
1.163396 -2.055428 4.511902 167 166 162
1.081902 -2.125913 4.514147 179 177 172
0.9989194 -2.195917 4.513706 189 186 182
0.91617 -2.267698 4.516313 194 190 187
0.8319258 -2.338744 4.515831 192 187 184
0.7462932 -2.408676 4.511817 188 183 178
0.6608576 -2.480513 4.510997 186 178 175
0.5753877 -2.554444 4.513364 183 175 171
0.4892051 -2.629153 4.516001 173 167 162
0.4024949 -2.705552 4.520555 154 147 145
0.3144254 -2.780121 4.52051 138 126 124
0.2258616 -2.856465 4.522554 104 84 78
0.1364954 -2.933153 4.524085 89 59 43
0.04643346 -3.011652 4.527497 89 55 34
-0.04448595 -3.090952 4.531026 88 53 31
-0.1362984 -3.171728 4.535664 87 59 38
-0.2290027 -3.25252 4.539162 100 75 50
-0.3225603 -3.333663 4.542087 132 108 93
-0.4057384 -2.82734 3.652373 98 34 29
-0.6147207 -2.96964 3.598821 185 191 190
-1.147801 -3.927597 4.379997 148 140 124
-1.210292 -3.913797 4.277059 109 100 90
2.354273 -1.20588 4.521112 219 212 203
2.28807 -1.272423 4.535497 208 198 191
2.215481 -1.338519 4.541387 196 184 177
2.146986 -1.406784 4.555433 184 168 161
1.524499 -1.355948 3.716845 200 206 211
1.461656 -1.407266 3.713445 172 177 179
1.40003 -1.459588 3.712988 166 170 172
1.338079 -1.512325 3.712728 162 163 162
1.275501 -1.565315 3.71206 168 166 166
1.213356 -1.619263 3.713305 186 188 187
1.152889 -1.675347 3.719687 196 212 213
1.325483 -2.075005 4.507213 70 48 31
1.24458 -2.14716 4.511601 85 62 49
1.161754 -2.21866 4.512682 104 76 58
1.079239 -2.29206 4.516881 140 123 108
0.9954857 -2.365515 4.519637 189 176 166
0.9113124 -2.440214 4.523665 211 207 205
0.8258734 -2.51475 4.525903 215 213 209
0.7400224 -2.590714 4.529692 218 216 213
0.6529884 -2.666464 4.531715 220 218 214
0.5651962 -2.742873 4.533756 222 219 215
0.4772546 -2.82231 4.539972 226 224 222
0.3878102 -2.900125 4.542006 226 224 222
0.2980208 -2.981319 4.54848 222 222 219
0.2070484 -3.061993 4.55275 221 218 216
0.1151956 -3.143951 4.557785 215 210 208
0.02231881 -3.22526 4.560629 208 205 203
-0.07142699 -3.307112 4.563183 213 212 212
-0.1657587 -3.38181 4.554721 220 223 221
-0.2600026 -3.451018 4.538464 224 229 228
-0.359802 -2.916456 3.646253 83 24 19
-0.5710334 -3.054822 3.585701 115 120 119
-0.9451724 -4.039647 4.543308 206 211 209
-1.025263 -4.052886 4.463886 127 123 115
-1.091892 -4.030981 4.350428 127 118 102
-1.158441 -4.02079 4.253927 115 107 95
2.395974 -1.352895 4.552997 183 168 156
2.319182 -1.419785 4.553971 176 159 146
2.245164 -1.488299 4.560349 161 142 130
2.172167 -1.558218 4.569803 165 146 133
1.599936 -1.42161 3.722287 214 219 220
1.534198 -1.473057 3.715297 171 175 179
1.470936 -1.525993 3.713182 169 173 175
1.407586 -1.579401 3.711599 163 164 164
1.345617 -1.63428 3.713598 160 159 160
1.282181 -1.688986 3.713665 178 177 177
1.221852 -1.746925 3.721684 173 169 170
1.414028 -2.171859 4.516521 189 192 190
1.337152 -2.251345 4.534353 192 191 188
1.253628 -2.325804 4.537707 203 203 199
1.168843 -2.400319 4.539677 212 211 209
1.083148 -2.475212 4.541101 221 221 218
0.996042 -2.54955 4.540139 224 224 221
0.9079692 -2.623743 4.537862 223 222 220
0.820274 -2.700499 4.539472 227 224 220
0.7314073 -2.776841 4.539165 226 225 222
0.6418963 -2.853842 4.538999 227 226 224
0.5519412 -2.932286 4.54026 227 226 224
0.4610107 -3.01048 4.540054 225 224 221
0.3695968 -3.090437 4.54166 224 224 221
0.2773737 -3.171011 4.543159 223 220 218
0.1842955 -3.251757 4.543896 216 211 209
0.0905676 -3.335163 4.547461 209 207 205
-0.004177332 -3.415819 4.546144 211 212 211
-0.09954625 -3.490765 4.536419 220 223 221
-0.1946108 -3.552991 4.509926 226 233 231
-0.4591339 -3.119736 3.619984 129 126 124
-0.527896 -3.150801 3.582051 128 131 131
-0.8876619 -4.16441 4.529138 206 212 209
-0.9664246 -4.162468 4.435181 142 137 125
-1.036813 -4.142694 4.32693 114 107 94
-1.105472 -4.130037 4.230269 110 101 91
-1.130824 -3.994131 4.017937 193 191 185
2.506172 -1.436074 4.568155 212 204 198
2.42726 -1.504282 4.567658 202 192 186
2.344219 -1.571718 4.561663 191 177 171
2.261014 -1.639498 4.555921 185 171 165
1.701673 -1.499906 3.766832 178 183 184
1.608051 -1.540488 3.715381 175 180 181
1.545839 -1.595446 3.716482 172 176 178
1.481336 -1.649796 3.714308 163 166 166
1.417672 -1.705273 3.714473 165 165 168
1.354318 -1.76175 3.716238 183 181 183
1.292766 -1.820614 3.722988 187 180 179
1.504217 -2.270702 4.522237 188 193 190
1.424018 -2.349505 4.533689 191 193 189
1.339667 -2.425756 4.537371 203 203 198
1.253886 -2.501928 4.539386 214 213 210
1.167448 -2.578916 4.54171 221 220 218
1.078908 -2.654379 4.539807 223 223 220
0.9897197 -2.730249 4.537707 223 222 219
0.9000815 -2.806927 4.536132 224 221 219
0.810296 -2.885304 4.53654 226 225 222
0.7191836 -2.962612 4.534142 227 225 223
0.6280798 -3.042437 4.534929 227 226 223
0.5356566 -3.120723 4.532331 226 226 223
0.4430743 -3.201653 4.53289 222 221 218
0.3497109 -3.283166 4.533329 220 217 215
0.2554763 -3.364537 4.532633 209 204 203
0.1606353 -3.447882 4.533763 206 203 201
0.06474668 -3.527368 4.528877 214 218 216
-0.03178219 -3.598744 4.513065 209 214 213
-0.1281383 -3.663676 4.489319 226 233 232
-0.1885608 -3.028378 3.622094 97 29 23
-0.9053029 -4.269268 4.401017 161 152 138
-0.9797534 -4.253851 4.299976 118 108 97
-1.075905 -4.083413 3.979693 190 190 183
2.597356 -1.515649 4.551415 215 207 201
2.521013 -1.585937 4.555326 203 193 187
2.438649 -1.654939 4.551463 195 183 176
2.353839 -1.723485 4.544525 183 169 163
1.686041 -1.61097 3.71836 173 175 177
1.623144 -1.667193 3.719587 167 169 172
1.557573 -1.722577 3.717046 177 177 180
1.49286 -1.779117 3.716763 188 188 191
1.42846 -1.836663 3.717996 193 191 192
1.364199 -1.895258 3.720613 197 190 189
1.308925 -1.963014 3.743394 140 135 134
1.589569 -2.365128 4.510312 184 189 189
1.510518 -2.447385 4.525569 190 192 189
1.426413 -2.526445 4.531799 201 201 198
1.340646 -2.605439 4.536226 210 210 207
1.252263 -2.682678 4.535862 218 218 215
1.163256 -2.760596 4.535653 221 221 218
1.073073 -2.838227 4.533885 221 221 218
0.9829559 -2.917835 4.534524 222 220 218
0.8916399 -2.997044 4.533445 225 222 220
0.7992362 -3.075726 4.530615 227 225 223
0.7063898 -3.155398 4.528497 228 226 223
0.6125891 -3.234464 4.524673 223 220 218
0.5188434 -3.316704 4.524658 222 221 218
0.4239184 -3.397352 4.521535 216 213 211
0.3287112 -3.480775 4.521404 200 195 194
0.2324547 -3.562289 4.517927 195 192 191
0.1352658 -3.639732 4.508664 114 110 105
0.03739256 -3.707101 4.486776 203 210 208
-0.1376756 -3.12656 3.618372 98 32 25
-0.845203 -4.387475 4.375573 145 139 124
-0.9198874 -4.360247 4.265854 121 113 103
-0.962099 -4.222286 4.058855 193 193 188
-1.021159 -4.176739 3.943682 191 192 184
2.610826 -1.667433 4.534037 204 194 190
2.532141 -1.739022 4.536138 194 184 178
2.45097 -1.810462 4.535626 185 171 165
2.383623 -1.889256 4.556896 186 174 169
1.768502 -1.684819 3.724206 185 190 191
1.70308 -1.741406 3.722692 179 182 184
1.636596 -1.797973 3.72011 191 194 194
1.571263 -1.855936 3.720212 201 202 205
1.504456 -1.913626 3.718561 203 202 204
1.438823 -1.973031 3.719972 189 180 178
1.374321 -2.034505 3.724793 158 155 155
1.682565 -2.467401 4.509291 184 190 189
1.601827 -2.550612 4.522288 186 187 185
1.517332 -2.632038 4.529602 192 191 188
1.430393 -2.712542 4.533486 198 198 195
1.340409 -2.79069 4.531755 200 199 195
1.250809 -2.87104 4.532849 168 164 161
1.159578 -2.950533 4.531384 125 117 111
1.067195 -3.02961 4.528324 142 131 126
0.9742019 -3.109153 4.525181 164 156 148
0.8805912 -3.189146 4.52193 167 160 147
0.7864396 -3.269813 4.518896 163 157 146
0.691204 -3.349387 4.51358 146 136 127
0.5954198 -3.429204 4.507993 164 154 147
0.5003552 -3.515361 4.510161 179 172 159
0.4025964 -3.59151 4.498555 180 175 171
0.3045562 -3.667082 4.486031 194 191 189
0.1061085 -3.785147 4.421891 225 234 234
-0.08522342 -3.251599 3.640623 103 41 37
-0.784299 -4.511105 4.352162 113 103 93
-0.8615912 -4.480624 4.242205 111 103 94
-0.9011298 -4.306366 4.009633 193 193 186
-0.9674534 -4.278426 3.913296 189 189 183
2.705694 -1.751788 4.51655 203 194 190
2.630841 -1.82633 4.524478 197 187 181
2.546137 -1.897766 4.519948 184 170 164
2.472127 -1.975044 4.531525 182 168 161
1.846167 -1.757188 3.718482 154 159 161
1.783359 -1.816784 3.722049 195 199 200
1.718331 -1.875986 3.72313 198 200 202
1.650938 -1.934431 3.721207 192 191 193
1.582928 -1.993122 3.718962 182 179 180
1.514878 -2.05251 3.717412 174 166 166
1.450258 -2.115862 3.723211 184 179 179
1.695987 -2.657066 4.518713 159 156 149
1.608308 -2.73759 4.520902 175 175 170
1.519718 -2.818731 4.522882 201 201 196
1.428292 -2.897691 4.519931 209 210 207
1.336643 -2.977761 4.517932 215 216 213
1.243374 -3.056671 4.513207 193 188 185
1.150209 -3.137257 4.510328 135 109 108
1.056756 -3.219111 4.508509 87 38 36
0.9620182 -3.300049 4.504529 87 28 23
0.8669328 -3.382133 4.501422 123 92 88
0.7721663 -3.467839 4.502399 190 171 169
0.4865049 -3.749893 4.530125 211 207 206
-0.7234559 -4.646833 4.336323 116 106 95
-0.8420505 -4.401826 3.969318 194 194 189
-0.915809 -4.395051 3.893267 216 226 221
2.799599 -1.836874 4.494646 168 159 150
2.563013 -2.062825 4.506616 168 155 148
1.869159 -1.896388 3.725615 178 181 183
1.803975 -1.957444 3.727734 164 165 165
1.732818 -2.015251 3.721342 170 167 166
1.662539 -2.07414 3.716794 161 159 160
1.595323 -2.136194 3.718088 148 141 138
1.532609 -2.203508 3.728563 181 167 164
1.799364 -2.773717 4.527106 190 193 192
1.71115 -2.85723 4.530845 198 197 194
1.620502 -2.939602 4.531296 208 208 205
1.528661 -3.022065 4.530775 220 219 216
1.436039 -3.105111 4.530133 226 226 223
1.342636 -3.188741 4.529371 223 223 219
1.248451 -3.272955 4.528489 227 226 223
1.153799 -3.358425 4.528426 230 228 225
1.058685 -3.44541 4.529445 229 229 226
0.963391 -3.535015 4.532883 229 228 226
0.8679796 -3.62824 4.539779 228 228 225
0.7707224 -3.720232 4.54382 226 226 223
0.6724486 -3.813345 4.54806 224 224 221
0.5722802 -3.903423 4.547627 215 212 210
0.4721596 -3.999606 4.553247 218 217 217
0.3711119 -4.098818 4.561023 221 224 222
-0.7826076 -4.500391 3.930083 192 192 187
-0.8623596 -4.512272 3.87084 233 246 247
2.730628 -2.191537 4.581038 176 162 156
1.958122 -1.978929 3.729308 142 146 148
1.888397 -2.038994 3.725961 147 146 147
1.817422 -2.09879 3.721306 131 132 131
1.746719 -2.159364 3.717603 146 145 145
1.680047 -2.224062 3.721141 166 160 161
1.618054 -2.29446 3.733932 176 163 161
1.903394 -2.891218 4.529322 189 192 190
1.817245 -2.980627 4.539285 194 193 190
1.727625 -3.068308 4.544703 210 210 207
1.633949 -3.152663 4.543601 221 220 217
1.539492 -3.237602 4.542378 225 224 221
1.444235 -3.323094 4.54099 225 224 221
1.347064 -3.407022 4.53653 227 227 222
1.250295 -3.493538 4.534811 228 227 225
1.151852 -3.578535 4.530265 231 230 227
1.054547 -3.668593 4.531377 230 229 227
0.9562467 -3.759207 4.532164 229 228 225
0.8570815 -3.850748 4.533077 226 225 222
0.7567219 -3.942046 4.532753 224 224 221
0.6553507 -4.03344 4.531662 214 211 209
0.5539676 -4.130037 4.535385 216 215 214
0.4520139 -4.231247 4.542907 221 224 224
0.346312 -4.31301 4.529211 199 202 202
0.1691924 -3.557733 3.678438 97 13 21
-0.6567113 -4.712128 4.049715 192 192 187
-0.7236058 -4.607661 3.89612 187 189 183
-0.8105953 -4.648234 3.860063 230 243 244
2.976562 -2.117829 4.527983 196 190 185
2.900112 -2.19966 4.537832 183 173 167
2.826969 -2.284936 4.55337 181 167 161
2.747629 -2.368739 4.56261 185 171 165
2.042895 -2.059819 3.722892 127 132 133
1.978733 -2.125387 3.728436 125 128 128
1.907037 -2.186769 3.724231 131 130 132
1.834296 -2.247949 3.719005 195 195 199
1.766477 -2.313958 3.721981 213 218 219
1.704164 -2.386471 3.735096 192 185 186
2.008157 -3.009647 4.526074 189 194 192
1.921221 -3.101372 4.536112 195 196 193
1.833945 -3.195528 4.548002 208 208 205
1.739942 -3.283468 4.549016 219 220 217
1.642382 -3.368051 4.544219 225 225 222
1.544209 -3.453093 4.539328 226 225 222
1.445908 -3.539495 4.535525 226 226 223
1.346671 -3.625877 4.530948 227 227 224
1.246249 -3.711513 4.524761 228 228 225
1.146363 -3.800319 4.52178 226 225 222
1.04613 -3.890807 4.519991 227 227 224
0.9448994 -3.98133 4.517427 223 223 222
0.842887 -4.072435 4.514741 218 218 215
0.7413791 -4.169569 4.517739 210 207 205
0.638194 -4.264747 4.51767 213 212 212
0.534894 -4.365637 4.522507 217 220 220
0.4295436 -4.461451 4.521245 220 227 226
0.2326383 -3.678828 3.677244 120 18 25
-0.5911463 -4.810153 4.001784 192 192 187
-0.6653776 -4.728948 3.870743 232 244 244
-0.758026 -4.794119 3.852926 226 239 240
3.059765 -2.202934 4.48251 198 193 190
2.980459 -2.284191 4.488471 189 183 177
2.896428 -2.36429 4.489831 178 169 162
2.072775 -2.215242 3.731437 187 193 196
2.001561 -2.279217 3.729363 223 234 235
1.926197 -2.340687 3.722018 199 204 207
1.854933 -2.406155 3.721138 185 184 186
1.791047 -2.479616 3.732552 179 178 177
2.111295 -3.126399 4.513873 180 185 182
2.038639 -3.238012 4.55004 189 189 186
1.942597 -3.325371 4.548136 204 203 200
1.846376 -3.414177 4.547287 212 213 210
1.748313 -3.502124 4.544309 218 217 215
1.648023 -3.588158 4.538032 220 219 216
1.546646 -3.673657 4.530475 218 217 214
1.446569 -3.763116 4.527192 221 221 218
1.344872 -3.8512 4.521523 223 223 220
1.242109 -3.938634 4.514495 223 222 220
1.138686 -4.026147 4.507025 218 217 217
1.035722 -4.117039 4.502699 218 217 214
0.9328343 -4.211182 4.501118 210 209 207
0.8289864 -4.305642 4.499058 203 202 199
0.7246373 -4.402375 4.498489 203 202 201
0.6202936 -4.505044 4.502828 209 212 212
0.515493 -4.613917 4.511941 211 219 217
0.2986028 -3.805191 3.676552 108 44 41
2.171799 -2.309516 3.736305 157 162 165
2.097516 -2.373583 3.731546 124 128 127
2.021825 -2.437155 3.725364 141 142 142
1.946484 -2.501594 3.720117 151 155 157
1.878649 -2.573823 3.72648 183 184 186
2.152658 -3.370477 4.550065 182 183 182
2.052406 -3.456331 4.543166 196 196 193
1.955544 -3.548052 4.543345 205 207 204
1.856142 -3.638079 4.54033 210 210 209
1.753368 -3.724412 4.531948 213 212 209
1.651454 -3.813476 4.526331 213 212 210
1.548455 -3.902127 4.51959 212 212 209
0.7087542 -4.651552 4.485477 197 200 198
0.3691567 -3.950966 3.688514 108 46 40
3.138591 -2.452857 4.383651 189 185 179
2.273418 -2.406596 3.739617 85 90 89
2.194215 -2.469317 3.730031 95 97 98
2.117261 -2.534159 3.723594 81 83 84
2.045487 -2.604167 3.724618 131 133 134
1.978057 -2.679638 3.732734 188 189 190
1.925381 -2.772338 3.763955 202 212 214
2.265816 -3.501807 4.541852 170 171 170
2.164839 -3.590309 4.535924 179 179 176
2.064774 -3.681391 4.532544 192 192 189
1.962813 -3.771374 4.527018 196 195 191
1.858707 -3.85943 4.518557 196 196 191
1.754075 -3.947781 4.509943 195 193 187
0.4444459 -4.111918 3.707727 96 63 55
2.294483 -2.56858 3.72848 206 215 216
2.218187 -2.636382 3.724255 169 172 174
2.142564 -2.705601 3.721473 163 166 170
2.073409 -2.782018 3.728073 152 156 160
2.010306 -2.866679 3.744505 181 182 183
2.364198 -3.615513 4.505357 128 124 117
2.264229 -3.707308 4.501882 130 124 112
2.158851 -3.793336 4.490736 123 119 110
2.053138 -3.879615 4.479539 109 106 100
1.942732 -3.959152 4.460474 90 84 76
0.8731203 -4.867026 4.371507 96 94 86
2.393127 -2.667324 3.720603 111 116 116
2.319284 -2.739425 3.720389 124 129 128
2.241869 -2.809554 3.716566 180 185 188
2.171896 -2.887793 3.722901 201 202 203
2.101606 -2.967767 3.730176 144 137 136
2.40806 -3.664555 4.387671 91 89 81
2.299512 -3.742561 4.36891 103 99 91
2.197194 -3.828793 4.359601 117 116 107
2.091201 -3.910583 4.344989 120 116 108
1.984891 -3.99214 4.330016 119 115 105
1.877626 -4.07229 4.313499 125 121 111
1.772431 -4.156292 4.30086 118 112 103
1.042444 -4.797309 4.25145 113 109 101
0.9347559 -4.886717 4.240763 109 110 100
-0.3399448 -5.174606 3.606358 205 207 202
-0.4215142 -5.079766 3.491095 227 244 243
2.49994 -2.77325 3.717885 178 182 178
2.423683 -2.845903 3.715916 140 147 146
2.34868 -2.920816 3.716133 137 140 140
2.2772 -3.000546 3.721537 135 138 140
2.201989 -3.078448 3.723489 159 158 159
2.434277 -3.692784 4.250565 88 88 79
2.329329 -3.771203 4.234405 91 90 79
2.228052 -3.854615 4.223634 92 89 79
2.12518 -3.93644 4.210884 100 97 87
2.021625 -4.017686 4.197351 100 97 86
1.91904 -4.100989 4.1857 101 97 87
1.81251 -4.177808 4.167562 125 124 113
1.705741 -4.253823 4.148774 124 123 114
1.599439 -4.330371 4.130608 114 112 104
1.495583 -4.412284 4.117304 105 103 95
1.390764 -4.492341 4.102245 123 124 114
1.285387 -4.571081 4.086019 136 133 123
1.183376 -4.660375 4.078461 138 134 126
1.082212 -4.755028 4.074769 134 129 121
0.979511 -4.847514 4.068773 137 133 125
0.7459737 -4.361875 3.621174 106 43 37
-0.2724419 -5.238312 3.536351 210 212 206
-0.3536604 -5.101147 3.400473 222 233 227
2.615613 -2.887064 3.720183 93 98 96
2.533231 -2.957421 3.712689 151 157 155
2.453944 -3.031219 3.709065 197 204 206
2.37711 -3.108458 3.70893 175 176 179
2.300468 -3.187389 3.709908 162 163 164
2.460332 -3.720925 4.119716 86 85 75
2.357335 -3.797886 4.103857 102 101 90
2.258361 -3.880293 4.093602 107 104 96
2.157579 -3.96086 4.081187 107 103 93
2.052217 -4.034801 4.062139 106 102 92
1.946905 -4.108339 4.042882 134 131 119
1.840488 -4.179327 4.021465 147 144 132
1.732337 -4.24596 3.996447 153 150 140
1.627484 -4.317855 3.976496 156 156 146
1.525022 -4.394416 3.960718 152 151 140
1.424324 -4.475397 3.948597 154 151 141
1.32375 -4.557564 3.93725 204 203 189
1.22306 -4.640493 3.926282 175 171 161
0.81901 -4.470291 3.585569 106 51 45
-0.2055764 -5.31022 3.471654 210 212 206
-0.2894468 -5.163817 3.335409 210 212 207
3.160868 -3.047704 3.988469 84 79 70
3.109946 -3.155531 4.019567 84 79 70
2.649592 -3.075479 3.712042 109 113 111
2.564718 -3.147178 3.703593 128 133 133
2.481794 -3.221368 3.697648 161 162 164
2.403836 -3.301621 3.697922 168 167 168
2.495968 -3.760487 4.006606 90 86 79
2.393434 -3.835092 3.989695 110 105 96
2.293837 -3.913482 3.976574 197 192 178
2.190525 -3.986874 3.958543 184 178 167
2.090816 -4.065471 3.945473 196 192 181
1.989297 -4.141472 3.929922 232 230 224
1.889358 -4.220304 3.916852 236 236 229
1.789399 -4.299552 3.904003 235 235 228
1.690441 -4.381403 3.893179 235 235 228
1.593968 -4.46981 3.887432 234 234 229
1.498186 -4.56204 3.884212 228 228 221
1.399888 -4.650452 3.877426 224 222 215
1.300559 -4.738101 3.869625 220 218 212
-0.1388521 -5.382461 3.407348 217 217 212
-0.2257841 -5.233575 3.274623 215 217 211
2.760307 -3.189324 3.700808 148 156 158
2.679873 -3.267704 3.698073 137 140 142
2.593324 -3.341343 3.689481 146 148 150
2.5096 -3.41857 3.684331 146 147 148
-0.07224713 -5.447027 3.339174 214 214 209
-0.1622504 -5.305302 3.214988 211 213 208
2.891129 -3.321368 3.704888 186 195 195
2.797922 -3.391447 3.690753 165 170 171
2.706187 -3.463008 3.678133 166 169 171
2.612937 -3.533192 3.664026 154 155 156
-0.005962022 -5.512087 3.271753 215 217 211
2.920918 -3.520332 3.683519 181 190 190
2.828167 -3.594048 3.67132 166 171 174
2.727417 -3.659681 3.65125 156 155 156
1.27165 -0.6092862 4.093707 103 91 84
1.030069 -0.7178888 3.723443 174 179 178
0.9713004 -0.7593176 3.707173 172 179 178
0.9174948 -0.8002021 3.706803 169 176 175
0.8637406 -0.8412651 3.707502 176 179 177
0.809415 -0.8825277 3.707046 185 190 188
0.755948 -0.9240957 3.711303 192 195 195
0.7023429 -0.9660375 3.716882 181 184 186
1.656202 -0.4852242 4.426017 183 168 154
1.55005 -0.5441162 4.3304 154 141 128
1.433099 -0.6031004 4.199765 128 117 106
1.322269 -0.6583527 4.073199 117 106 99
1.169418 -0.7159278 3.818776 197 200 202
1.076453 -0.7619406 3.711185 201 204 204
1.021518 -0.8033724 3.708678 185 190 192
0.9670875 -0.8449252 3.708344 202 211 211
0.9125373 -0.8866715 3.708449 215 222 224
0.8579605 -0.9286445 3.70944 209 219 221
0.8036052 -0.9709365 3.712523 203 208 209
0.7482664 -1.013372 3.712997 192 197 200
0.6920479 -1.055821 3.710642 169 167 165
1.614799 -0.5954458 4.327931 174 160 147
1.488884 -0.6540466 4.183331 139 128 117
1.377019 -0.707721 4.060974 129 118 109
1.123854 -0.8067864 3.699181 196 199 199
1.073665 -0.8486687 3.711722 207 213 212
1.018532 -0.8909329 3.711317 220 224 228
0.9632905 -0.9334025 3.711373 211 218 219
0.907949 -0.9761053 3.712022 190 200 200
0.8521755 -1.019004 3.712154 176 183 184
0.7960116 -1.06208 3.711821 161 164 164
0.7387278 -1.105016 3.707701 185 198 200
0.7119167 -1.163504 3.851215 60 60 53
0.6562029 -1.211897 3.872338 61 60 53
0.5961816 -1.258598 3.874508 69 65 58
0.5366379 -1.306477 3.882529 71 67 60
0.4761044 -1.354353 3.887663 79 73 66
-0.2195326 -1.89147 3.89713 125 121 113
-0.2847757 -1.941532 3.896832 144 137 131
-0.3498292 -1.990519 3.893007 164 155 149
-0.546576 -2.139406 3.884226 197 193 185
-0.6120572 -2.188359 3.87903 192 189 181
-0.6780358 -2.238093 3.875346 178 168 159
-0.7447562 -2.288933 3.873688 140 128 121
1.409552 -0.7596216 3.993037 187 172 158
1.176838 -0.8524859 3.699272 205 208 210
1.127551 -0.8953177 3.715386 182 190 187
1.071102 -0.9382702 3.713202 173 179 181
1.015123 -0.981461 3.713056 181 186 187
0.9591427 -1.024913 3.713785 198 204 206
0.9026256 -1.068538 3.713699 202 205 207
0.8453297 -1.1122 3.711702 190 193 193
0.7884941 -1.156307 3.712414 177 186 190
0.7676575 -1.22056 3.875274 121 119 113
0.7139164 -1.272401 3.910222 159 153 142
0.6519281 -1.320091 3.909594 185 178 166
0.5903972 -1.36877 3.9135 201 192 180
0.5278785 -1.41714 3.913785 209 199 189
0.4649463 -1.465615 3.913348 215 208 197
0.4017527 -1.514399 3.913267 219 212 201
0.3384104 -1.563903 3.915238 217 212 203
0.2747114 -1.613909 3.917972 217 212 203
0.2105424 -1.664035 3.919883 214 208 199
0.1459236 -1.713807 3.919425 218 213 202
0.08099128 -1.764298 3.920577 216 211 200
0.01574428 -1.814223 3.918996 216 213 201
-0.04981634 -1.864701 3.918462 217 213 203
-0.115683 -1.915381 3.917816 217 214 204
-0.1821444 -1.967471 3.920381 217 214 204
-0.2487821 -2.018954 3.920437 218 215 205
-0.3154833 -2.069853 3.918348 215 212 202
-0.3819335 -2.119583 3.912967 214 211 201
-0.4483896 -2.169141 3.906982 208 205 195
-0.5151861 -2.21934 3.902279 209 206 196
-0.58208 -2.269552 3.897364 199 195 185
-0.6490668 -2.319782 3.892272 168 157 143
-0.717194 -2.372021 3.890993 146 137 127
1.623237 -0.6727418 3.935402 230 217 206
1.555115 -0.7192866 3.916112 225 214 203
1.49155 -0.7652358 3.905779 222 210 199
1.432997 -0.8109608 3.906607 204 193 180
1.373056 -0.8569289 3.904891 176 159 146
1.231886 -0.8994839 3.700836 194 200 200
1.182258 -0.943319 3.717001 210 217 218
1.125381 -0.987016 3.715614 207 215 218
1.068851 -1.030994 3.715905 190 197 200
1.012062 -1.075207 3.716298 195 201 206
0.9546006 -1.119537 3.715454 175 179 184
0.8962698 -1.16382 3.712417 160 163 165
0.8382179 -1.208445 3.71108 154 155 156
0.8166804 -1.274783 3.862124 113 110 102
0.7662241 -1.330126 3.911364 143 136 125
0.7034962 -1.378686 3.910954 178 169 157
0.6406545 -1.427675 3.911582 159 148 134
0.57714 -1.476509 3.910149 206 199 186
0.513498 -1.525762 3.90969 211 204 193
0.449443 -1.575033 3.908309 215 208 197
0.3852952 -1.624974 3.908748 214 209 200
0.3207606 -1.675044 3.908667 217 209 199
0.2559537 -1.725661 3.909604 218 212 203
0.1908403 -1.777187 3.91259 213 208 197
0.1252287 -1.828139 3.912647 217 214 203
0.05926853 -1.879585 3.913384 214 209 198
-0.007079922 -1.931477 3.914565 213 209 198
-0.07382219 -1.983661 3.915699 204 199 187
-0.1410455 -2.036585 3.917951 210 206 196
-0.2084882 -2.088899 3.91783 221 217 207
-0.2761811 -2.141139 3.916888 216 213 203
-0.3438074 -2.19244 3.913249 212 209 197
-0.4115334 -2.243624 3.909017 213 210 200
-0.4790846 -2.294062 3.902927 207 202 193
-0.5471056 -2.345463 3.89866 200 195 184
-0.6152949 -2.396989 3.894373 161 148 137
-0.6852477 -2.451939 3.896343 120 116 110
-0.702105 -2.402188 3.705059 95 35 29
1.692164 -0.7207827 3.944968 227 214 203
1.622798 -0.7679214 3.925679 218 205 193
1.556899 -0.8146374 3.912684 216 205 191
1.494885 -0.8612214 3.907693 205 194 181
1.433898 -0.9079343 3.905272 175 159 144
1.286433 -0.9476846 3.697415 201 207 210
1.235744 -0.9923775 3.711591 153 159 160
1.180978 -1.037173 3.717275 140 144 146
1.123614 -1.0819 3.717171 127 129 131
1.066183 -1.12691 3.717707 129 132 132
1.007922 -1.171983 3.71663 136 139 139
0.9487643 -1.216974 3.713392 148 151 153
0.8900638 -1.262412 3.712375 158 157 159
0.8584437 -1.32498 3.816943 132 128 124
0.8196684 -1.389255 3.910815 149 142 131
0.7564372 -1.438882 3.911601 186 178 165
0.6919982 -1.487887 3.908069 197 188 176
0.6281364 -1.538002 3.908842 214 207 194
0.563588 -1.587894 3.907523 213 207 196
0.4985704 -1.637631 3.904767 220 212 202
0.4333087 -1.687475 3.901777 220 214 205
0.3680394 -1.738128 3.901006 219 213 204
0.3025609 -1.789451 3.901632 213 208 196
0.2368542 -1.842015 3.905192 217 211 200
0.1705665 -1.893915 3.905671 218 215 203
0.103915 -1.946491 3.907227 217 214 204
0.0368344 -1.999608 3.909356 216 213 201
-0.03067487 -2.052883 3.910996 211 207 198
-0.0986103 -2.106471 3.912581 218 214 205
-0.1668473 -2.159735 3.912624 218 215 205
-0.2353248 -2.212761 3.911494 219 216 206
-0.3036296 -2.264278 3.906569 216 213 203
-0.3720544 -2.315827 3.901474 215 212 202
-0.4406735 -2.367642 3.896694 211 206 195
-0.5095877 -2.419944 3.892625 190 184 175
-0.5790342 -2.473228 3.890119 159 144 134
-0.6666509 -2.468897 3.689495 101 59 60
1.769968 -0.7701864 3.966907 234 223 212
1.700724 -0.8180981 3.950768 221 210 199
1.63229 -0.8657586 3.935596 218 208 197
1.566105 -0.9132753 3.924502 213 204 192
1.500475 -0.960722 3.914325 188 174 162
1.292073 -1.042894 3.70967 206 211 213
1.237782 -1.088736 3.717843 202 209 210
1.180177 -1.134363 3.718932 182 188 191
1.121423 -1.179999 3.717776 208 212 216
1.062678 -1.225933 3.717387 216 222 226
1.002664 -1.271635 3.713909 211 216 219
0.9425848 -1.317515 3.710751 191 189 191
0.8983225 -1.373915 3.76529 142 139 137
0.8776456 -1.452381 3.921918 134 128 118
0.8131099 -1.502819 3.92143 194 187 176
0.7478102 -1.553023 3.918845 206 199 187
0.6819457 -1.602978 3.914519 216 208 198
0.6157433 -1.652777 3.909135 220 215 204
0.5487007 -1.701312 3.898911 225 220 208
0.4821427 -1.750667 3.891706 226 221 211
0.4160936 -1.801636 3.889566 227 222 213
0.3502759 -1.854682 3.893112 220 215 204
0.2843038 -1.910041 3.902171 224 220 211
0.2174571 -1.964914 3.908283 223 220 210
0.1499528 -2.019702 3.91288 223 220 210
0.08187513 -2.076176 3.92059 225 221 211
0.01298089 -2.135014 3.932636 217 213 203
-0.05653746 -2.191945 3.938649 216 213 203
-0.126851 -2.250358 3.946824 210 207 197
-0.2040599 -2.340572 4.021408 196 190 183
-0.2790542 -2.408389 4.044004 185 177 171
-0.6344727 -2.546242 3.689221 96 34 30
1.791025 -0.8706875 3.993283 219 208 197
1.723316 -0.9196859 3.983097 205 195 181
1.653778 -0.9684687 3.969084 193 182 172
1.581836 -1.016763 3.949571 147 135 128
1.35344 -1.095486 3.715593 160 160 160
1.297414 -1.142101 3.721163 133 132 134
1.239133 -1.188624 3.72242 135 136 136
1.179301 -1.235004 3.720527 141 141 144
1.119464 -1.28166 3.719262 162 162 166
1.058602 -1.328139 3.71572 174 173 174
0.9975495 -1.374733 3.712098 180 179 180
0.9443085 -1.426845 3.735415 156 157 160
0.5521332 -2.102098 4.579153 199 197 191
0.4715664 -2.172494 4.59492 200 196 191
0.3895057 -2.242148 4.606257 205 201 195
0.3059695 -2.30902 4.608495 205 201 196
0.2217494 -2.374816 4.607008 207 202 199
0.1371246 -2.440423 4.604346 206 202 198
0.05217788 -2.505505 4.599891 206 202 197
-0.03292365 -2.569306 4.592197 207 202 199
-0.1180746 -2.632634 4.583324 203 199 193
-0.2029013 -2.693577 4.569541 197 191 186
-0.2875426 -2.754284 4.555552 192 184 180
-0.3724924 -2.816918 4.545443 192 187 182
-0.4586304 -2.883948 4.543311 191 189 185
-0.5478773 -2.960316 4.557059 196 197 196
-0.6370066 -3.033818 4.564409 202 207 207
-0.5385451 -2.586761 3.712564 95 32 29
-1.25428 -3.506826 4.532217 182 182 179
1.892122 -1.108103 4.433442 172 158 150
1.421619 -1.150931 3.731974 191 198 200
1.358334 -1.197002 3.723187 198 205 207
1.297595 -1.243848 3.720335 190 197 200
1.237023 -1.290987 3.718385 170 175 178
1.176164 -1.338289 3.716297 170 173 173
1.11481 -1.385634 3.713466 152 155 153
1.054336 -1.433793 3.713846 152 155 153
0.9976529 -1.485115 3.727324 158 158 157
1.082466 -1.777898 4.49163 166 168 164
1.023993 -1.862313 4.572336 174 174 169
0.94155 -1.92454 4.56558 191 189 184
0.8603352 -1.988904 4.565426 200 200 195
0.7791758 -2.054463 4.567904 207 207 202
0.6972756 -2.120065 4.569225 206 204 198
0.6147515 -2.185765 4.569703 206 204 198
0.5317903 -2.251949 4.570471 208 204 199
0.4483268 -2.318463 4.571096 212 208 204
0.3644438 -2.385733 4.572618 210 206 202
0.2798955 -2.452291 4.571507 210 208 204
0.1948941 -2.518572 4.569046 212 208 204
0.1095381 -2.585296 4.566928 211 208 204
0.023797 -2.652587 4.565367 211 207 203
-0.06228575 -2.719428 4.562273 210 206 202
-0.1484591 -2.784542 4.555362 203 197 192
-0.2346669 -2.849006 4.547014 197 191 186
-0.3210735 -2.914075 4.539615 197 193 187
-0.4081142 -2.981377 4.535885 199 197 193
-0.4968451 -3.054096 4.540809 204 208 205
-0.5822229 -3.113624 4.52338 209 214 213
-0.4990304 -2.656402 3.69297 95 30 27
-1.218615 -3.625371 4.537883 187 188 186
2.066732 -1.119374 4.472315 197 184 175
2.003635 -1.180689 4.493808 175 162 153
1.935141 -1.242149 4.507139 172 158 151
1.421281 -1.253664 3.725512 164 171 172
1.358915 -1.301073 3.720878 178 182 186
1.29675 -1.348718 3.717023 192 199 203
1.235593 -1.397052 3.716093 201 210 212
1.173378 -1.44519 3.713126 200 207 208
1.112514 -1.494469 3.714508 193 197 199
1.055503 -1.547128 3.728553 177 174 174
1.043811 -1.638841 3.890106 89 90 81
1.152628 -1.857821 4.489836 174 174 171
1.089365 -1.93935 4.55071 176 175 171
1.006442 -2.002542 4.544854 190 190 185
0.9251635 -2.068555 4.547104 200 200 195
0.8429032 -2.134269 4.547232 209 208 203
0.7595795 -2.199131 4.544025 212 210 204
0.6764192 -2.265391 4.543815 211 209 204
0.5926948 -2.331677 4.542772 210 206 201
0.5086163 -2.398526 4.54228 212 208 202
0.4239777 -2.465175 4.540519 212 210 205
0.3390126 -2.532569 4.539709 212 209 205
0.2536036 -2.600245 4.538754 212 209 207
0.1678048 -2.669325 4.539947 212 209 207
0.08147354 -2.73736 4.538256 212 208 204
-0.005272865 -2.805882 4.536867 209 204 201
-0.09234941 -2.873674 4.533533 201 195 189
-0.1798577 -2.942473 4.531497 196 190 185
-0.267522 -3.010108 4.526934 199 194 191
-0.3558998 -3.080123 4.525921 201 203 199
-0.4452009 -3.152507 4.528111 208 211 211
-0.460284 -2.732414 3.680689 93 29 26
-1.178479 -3.740978 4.534523 188 189 187
2.242647 -1.130267 4.501181 214 204 197
2.171714 -1.191612 4.509168 204 192 185
2.106039 -1.254754 4.528093 184 171 162
2.039209 -1.318869 4.547101 178 164 156
1.485523 -1.311907 3.72641 161 167 168
1.421536 -1.35984 3.720154 146 152 153
1.357568 -1.407861 3.714084 142 146 150
1.296414 -1.457396 3.714875 144 147 149
1.23422 -1.506842 3.713986 152 156 157
1.171672 -1.556494 3.712956 164 166 166
1.113112 -1.609568 3.723965 177 174 174
1.083927 -1.688819 3.825423 116 114 107
1.215091 -1.930718 4.456528 158 157 155
1.156926 -2.018888 4.531907 168 168 165
1.07404 -2.08387 4.529057 183 181 177
0.9912584 -2.149741 4.527978 193 192 187
0.9076683 -2.215279 4.525115 203 201 196
0.8237388 -2.281074 4.522222 202 200 194
0.7391533 -2.346401 4.517522 201 197 191
0.6546637 -2.412906 4.515102 202 198 194
0.5698972 -2.479995 4.513339 201 197 193
0.4849504 -2.548329 4.513578 202 197 194
0.3994144 -2.616512 4.512681 201 195 192
0.3133709 -2.68453 4.510744 200 196 192
0.2270076 -2.753959 4.510906 198 194 190
0.1401443 -2.823869 4.51121 193 187 184
0.05276823 -2.894169 4.511477 190 181 179
-0.0351832 -2.965907 4.513515 179 171 164
-0.123566 -3.036339 4.512553 172 164 158
-0.2123693 -3.106815 4.511056 169 165 158
-0.3017519 -3.178458 4.510835 163 161 159
-0.3925532 -3.255045 4.51753 164 167 163
-0.421838 -2.814985 3.674918 98 36 33
-0.6791468 -2.967473 3.576576 141 148 147
-1.051891 -3.809038 4.562273 95 88 86
2.342598 -1.202451 4.520334 218 209 199
2.279514 -1.267107 4.543465 205 195 185
2.206498 -1.330941 4.55165 192 178 170
2.129811 -1.39462 4.554564 180 165 157
2.04802 -1.457331 4.548872 178 164 158
1.551265 -1.3718 3.726293 148 156 160
1.485931 -1.420343 3.719128 198 202 204
1.422712 -1.46991 3.716581 195 202 203
1.359864 -1.519984 3.715397 190 197 197
1.297317 -1.57065 3.715623 177 180 182
1.233242 -1.620815 3.712919 163 166 167
1.173081 -1.674326 3.721209 161 162 161
1.136047 -1.748935 3.796714 107 106 95
1.301121 -2.026683 4.49131 80 69 60
1.229862 -2.104455 4.525442 75 55 44
1.144482 -2.168683 4.517416 80 52 35
1.059444 -2.233634 4.511077 82 52 36
0.9752367 -2.300392 4.508926 89 60 43
0.8896275 -2.365512 4.502094 93 64 45
0.8045205 -2.432239 4.498663 100 69 49
0.7190082 -2.499011 4.494754 107 73 52
0.6333279 -2.566456 4.491752 136 104 85
0.5479874 -2.636869 4.49423 146 122 104
0.4619634 -2.707413 4.495996 169 153 144
0.375594 -2.780028 4.50079 188 178 171
0.2885513 -2.853826 4.506664 206 197 195
0.2006894 -2.927732 4.511601 213 207 205
0.1120719 -3.001878 4.515912 210 205 202
0.02276715 -3.075245 4.517968 202 196 191
-0.06723855 -3.150238 4.521816 201 197 192
-0.1580602 -3.226749 4.527116 205 204 199
-0.2495527 -3.303001 4.531061 214 215 214
-0.3413655 -3.377409 4.531453 220 226 223
-0.382962 -2.903008 3.673146 88 27 22
-1.003936 -3.921918 4.547028 205 208 207
-1.07725 -3.938169 4.474411 94 86 80
2.392464 -1.346371 4.578966 196 182 170
2.311227 -1.410475 4.575896 173 157 143
2.224516 -1.473319 4.563835 162 143 131
2.146678 -1.539052 4.567682 159 142 130
1.619003 -1.433545 3.726053 175 180 183
1.552284 -1.482697 3.718027 203 208 210
1.489388 -1.533718 3.717839 210 217 219
1.425477 -1.584649 3.716211 209 216 215
1.362121 -1.63633 3.716472 201 206 207
1.298379 -1.6883 3.716696 192 194 196
1.237247 -1.742895 3.724393 175 174 174
1.19038 -1.811161 3.771875 110 112 107
1.387984 -2.124067 4.517493 185 189 187
1.311714 -2.200019 4.539436 187 189 184
1.226386 -2.267723 4.536798 200 200 197
1.140976 -2.336119 4.535144 210 209 207
1.055334 -2.405143 4.534183 220 220 217
0.969231 -2.474508 4.533165 222 221 216
0.8832618 -2.545485 4.53486 225 222 218
0.7958603 -2.614807 4.532114 222 222 217
0.7085043 -2.685686 4.531878 225 224 220
0.6209688 -2.758118 4.533857 227 226 223
0.5324507 -2.829376 4.532731 226 225 222
0.4434492 -2.900905 4.531411 226 225 223
0.3541723 -2.974292 4.532664 227 226 223
0.2642912 -3.047968 4.533598 225 222 220
0.1737954 -3.121157 4.532981 220 218 214
0.08279268 -3.194579 4.532081 210 206 202
-0.008743674 -3.269271 4.532497 209 207 205
-0.1009128 -3.345275 4.534168 212 212 209
-0.1937086 -3.42171 4.535715 219 223 222
-0.2855732 -3.48764 4.521915 221 228 228
-0.2730262 -2.949604 3.690872 93 29 21
-0.9549468 -4.038408 4.532154 207 210 208
2.488152 -1.424202 4.580323 208 200 192
2.405623 -1.48945 4.576942 199 190 182
2.318044 -1.55345 4.565643 183 169 161
2.231733 -1.61786 4.556475 184 170 164
1.774096 -1.531795 3.879147 178 176 176
1.623879 -1.548443 3.722835 184 187 187
1.559422 -1.600224 3.721401 194 199 200
1.493985 -1.65186 3.718571 177 180 182
1.430102 -1.704838 3.719588 190 194 194
1.364602 -1.7573 3.717898 192 195 195
1.302188 -1.812691 3.724229 186 181 180
1.250592 -1.878813 3.759358 134 132 130
1.466249 -2.213467 4.510988 185 190 187
1.392219 -2.294283 4.540724 187 188 185
1.308344 -2.366699 4.54626 199 198 195
1.221755 -2.436993 4.545409 211 211 206
1.134763 -2.507768 4.544781 220 220 217
1.047299 -2.578949 4.544182 223 222 220
0.9586555 -2.64909 4.540634 222 222 217
0.8705721 -2.721697 4.541385 222 219 215
0.7814818 -2.793501 4.539744 224 224 221
0.6920553 -2.866047 4.53879 225 224 221
0.6021734 -2.939113 4.538054 228 227 224
0.5117846 -3.012554 4.537257 225 224 221
0.4208882 -3.086368 4.536399 223 223 220
0.3295563 -3.161252 4.53659 223 223 220
0.2375729 -3.235119 4.5345 217 214 210
0.1451521 -3.309963 4.533321 206 202 198
0.05219675 -3.38747 4.535415 211 208 206
-0.0412063 -3.461058 4.531208 217 221 219
-0.1349435 -3.534677 4.526643 222 227 227
-0.2276582 -3.596769 4.50636 225 232 231
-0.2268191 -3.020009 3.659291 92 26 21
-0.8135247 -4.103701 4.546656 215 220 217
-0.9042069 -4.156581 4.515274 204 207 207
-0.9760923 -4.153625 4.424412 160 151 137
2.576129 -1.501738 4.5655 209 201 195
2.49755 -1.569348 4.569425 197 188 180
2.409819 -1.634598 4.559726 187 175 168
2.32096 -1.699466 4.548223 182 170 163
1.699263 -1.617135 3.729982 190 192 194
1.631812 -1.669013 3.724878 197 200 200
1.564652 -1.721267 3.720624 202 206 207
1.499958 -1.775415 3.721771 207 210 212
1.4339 -1.829241 3.720929 195 194 193
1.370363 -1.885671 3.726528 192 185 185
1.315052 -1.95061 3.753163 152 148 145
1.550098 -2.30878 4.512514 186 192 189
1.475828 -2.392159 4.543025 186 187 184
1.390174 -2.465403 4.54668 198 198 195
1.302885 -2.5379 4.547454 209 209 206
1.215178 -2.611073 4.548683 220 219 216
1.125916 -2.683011 4.546452 222 221 219
1.03643 -2.7557 4.544997 222 222 219
0.9460738 -2.827833 4.541792 222 220 217
0.8557158 -2.901306 4.540429 226 223 221
0.7651026 -2.975871 4.540279 225 225 222
0.6739737 -3.050979 4.540292 227 224 222
0.5820664 -3.12551 4.538626 223 223 220
0.4896603 -3.200296 4.536748 221 220 218
0.3965948 -3.273969 4.53259 219 216 214
0.3034418 -3.35111 4.533105 214 211 209
0.2096747 -3.428425 4.533161 205 200 197
0.1153228 -3.505945 4.532839 206 203 201
0.02060351 -3.576041 4.521884 213 218 216
-0.07397252 -3.643343 4.507247 223 229 228
-0.1683493 -3.710185 4.492201 227 234 235
-0.1821726 -3.108902 3.649186 98 35 33
-0.7597083 -4.22394 4.528552 210 215 213
-0.8558966 -4.291576 4.512547 138 136 130
-0.9263029 -4.27293 4.407055 148 139 126
2.587693 -1.650108 4.555167 199 191 183
2.503485 -1.717844 4.552392 189 177 170
2.416809 -1.785025 4.546262 182 168 162
2.338852 -1.856378 4.554844 182 170 163
1.775534 -1.687464 3.733977 185 192 194
1.705656 -1.739635 3.726467 182 185 187
1.638178 -1.793333 3.723495 183 186 186
1.571691 -1.848078 3.722936 192 193 193
1.505435 -1.903573 3.72359 191 191 192
1.439398 -1.959953 3.725621 185 179 176
1.37988 -2.023127 3.743393 191 189 191
1.561043 -2.491988 4.542057 184 185 182
1.474644 -2.567288 4.546693 195 195 190
1.387682 -2.643479 4.551878 206 205 203
1.299286 -2.719323 4.555078 215 215 212
1.20779 -2.791577 4.550331 218 218 215
1.117339 -2.866765 4.550487 217 217 214
1.025338 -2.940206 4.54673 218 216 212
0.9336478 -3.015709 4.545965 222 220 216
0.8417525 -3.092601 4.546772 220 218 216
0.7489877 -3.169076 4.54611 219 218 215
0.6560816 -3.247686 4.548051 218 217 215
0.562072 -3.32462 4.546649 219 217 214
0.4675011 -3.401648 4.544768 206 203 201
0.3724316 -3.479027 4.542805 185 183 181
0.2769703 -3.558281 4.542841 164 163 158
0.1808946 -3.637653 4.542372 146 145 145
0.08432335 -3.6732 4.484846 128 124 118
-0.01104409 -3.741598 4.470981 133 131 125
