ply
format ascii 1.0
comment author: PIX4Dcatch
element vertex 1186
property float x
property float y
property float z
property uchar red
property uchar green
property uchar blue
end_header
-0.8098825 -0.5170013 3.953418 112 79 55
-0.9409797 -0.4140779 3.917208 121 88 66
-1.004355 -0.3642835 3.899619 81 57 38
-0.9927087 -0.2015903 3.530941 83 63 43
-1.057689 -0.1649393 3.544082 38 22 13
-1.119672 -0.1272451 3.5507 46 32 16
-1.095912 -0.06068309 3.372835 94 76 57
-1.140726 -0.0220841 3.353065 89 71 53
-1.18637 0.01504199 3.337664 94 78 60
1.096761 -1.006702 2.156484 181 162 138
1.080519 -1.025361 2.215392 166 147 123
1.063587 -1.045843 2.278863 152 130 109
1.046283 -1.069035 2.348243 139 117 97
1.028161 -1.0947 2.423651 141 119 101
1.009695 -1.124219 2.507219 143 120 103
0.9896988 -1.156222 2.597787 145 125 106
0.9673868 -1.189902 2.694791 145 125 106
0.9422128 -1.224828 2.798095 144 124 105
0.9152951 -1.264127 2.912457 144 126 107
0.8851144 -1.305743 3.035795 151 133 114
0.851228 -1.349811 3.168965 155 141 122
0.8159474 -1.40409 3.324394 164 150 134
0.7762146 -1.46361 3.496222 172 162 146
0.7328462 -1.534402 3.695412 184 176 159
0.6774181 -1.591156 3.882618 198 191 176
0.3462769 -0.6374316 2.418344 255 254 255
0.05956946 -1.45488 4.433291 160 146 130
-0.03654352 -1.392857 4.437398 149 131 114
-0.1314888 -1.330278 4.438837 118 99 85
-0.2263335 -1.272543 4.449822 118 101 86
-0.3187481 -1.209157 4.446279 128 110 93
-0.3383749 -0.7303576 3.515887 69 25 21
-0.5885 -1.02426 4.436183 112 86 68
-0.6808468 -0.9720045 4.454786 105 79 59
-0.766157 -0.9104037 4.445349 57 32 18
-0.8554559 -0.856312 4.456223 32 5 4
-0.7863275 -0.6353752 3.922769 135 99 70
-0.8693855 -0.5964808 3.955692 103 72 46
-0.9997955 -0.4897203 3.916104 121 88 62
-1.066408 -0.4405811 3.906657 78 52 34
-1.045823 -0.265776 3.530019 94 72 51
-1.114745 -0.2301569 3.550658 31 15 7
-1.15405 -0.181948 3.506698 57 46 33
-1.144049 -0.117922 3.365468 90 73 54
-1.192643 -0.07957162 3.353577 91 73 54
-1.240758 -0.04210307 3.342808 93 77 59
1.070848 -1.046023 2.134517 188 169 144
1.052826 -1.064433 2.191139 174 154 132
1.035335 -1.086807 2.254431 158 137 115
1.016793 -1.111042 2.322483 140 118 99
0.9978105 -1.138688 2.397397 140 118 101
0.9777077 -1.169176 2.478973 139 117 100
0.9565113 -1.20328 2.568609 141 121 103
0.9324967 -1.238353 2.663565 144 124 104
0.9058744 -1.27547 2.765566 144 125 104
0.8770352 -1.316468 2.877524 143 123 104
0.8450046 -1.360357 2.998825 148 130 111
0.8096308 -1.408207 3.131639 152 136 119
0.7717257 -1.464535 3.283311 158 143 127
0.7299479 -1.528887 3.454678 166 154 137
0.6826563 -1.599851 3.64518 177 167 152
0.6261306 -1.666523 3.839294 191 183 167
0.3204308 -0.6903861 2.415482 255 254 255
0.2737673 -0.6706716 2.437395 255 254 255
0.00004966557 -1.560879 4.427282 158 144 129
-0.09708387 -1.499031 4.434385 144 125 110
-0.1927511 -1.434521 4.434727 117 97 83
-0.2883072 -1.374838 4.443861 100 85 74
-0.3811893 -1.309525 4.439233 118 102 88
-0.3857385 -0.8026677 3.50697 68 24 20
-0.6495008 -1.114865 4.414776 107 82 59
-0.7436712 -1.064099 4.438677 101 76 54
-0.8306268 -1.003225 4.434846 63 32 14
-0.9164303 -0.9432398 4.431217 85 63 47
-0.8456746 -0.7167044 3.923462 135 101 71
-1.06097 -0.5678997 3.917518 115 83 55
-1.130897 -0.5195265 3.915509 71 50 34
-1.09901 -0.3308194 3.526398 97 73 54
-1.174314 -0.2976846 3.559317 31 16 8
-1.167938 -0.2271967 3.420897 69 55 35
-1.194075 -0.1766092 3.359993 85 67 48
-1.245038 -0.1381635 3.352623 90 74 55
-1.295535 -0.1004636 3.346051 91 75 56
1.044192 -1.084226 2.111352 191 174 149
1.025846 -1.104652 2.168115 180 161 136
1.007083 -1.127771 2.229999 163 143 121
0.9874621 -1.15329 2.297022 149 126 106
0.9667264 -1.181264 2.369581 140 118 100
0.9459053 -1.214391 2.451101 138 116 97
0.9230232 -1.249608 2.538645 140 120 100
0.8976602 -1.286726 2.632385 139 121 100
0.8696746 -1.326238 2.733335 137 118 97
0.8390384 -1.369139 2.843237 137 117 98
0.8053493 -1.415799 2.963206 143 125 106
0.7679783 -1.466175 3.093907 152 134 116
0.7275144 -1.524453 3.241842 155 140 122
0.6832193 -1.592111 3.410425 163 148 132
0.6328843 -1.665594 3.596147 171 159 144
0.5750772 -1.743335 3.798008 183 174 158
0.2938921 -0.7441705 2.411801 255 254 255
0.2461274 -0.719609 2.425919 255 254 255
-0.0604866 -1.665737 4.41436 144 131 120
-0.1581781 -1.601874 4.419803 132 116 102
-0.2540075 -1.534419 4.416873 103 86 75
-0.3499302 -1.473051 4.42452 92 77 68
-0.443589 -1.407902 4.422994 118 101 87
-0.4350293 -0.8784807 3.502632 68 25 22
-0.7082236 -1.201083 4.379587 116 90 68
-0.8046341 -1.153145 4.410899 112 87 67
-0.8935201 -1.093931 4.413947 65 38 20
-0.9776434 -1.030604 4.404306 80 56 41
-0.9060294 -0.7995599 3.922576 138 105 76
-0.9962305 -0.7648106 3.96924 99 68 44
-1.12525 -0.6493039 3.922846 116 83 57
-1.192853 -0.597669 3.913819 52 36 20
-1.15481 -0.3981281 3.525857 89 70 49
-1.234226 -0.3664987 3.565162 27 14 7
-1.210394 -0.2846344 3.396294 79 64 48
-1.248518 -0.2379339 3.360974 89 73 53
-1.299781 -0.1985539 3.35374 90 74 55
-1.352066 -0.160468 3.349937 90 74 54
1.01785 -1.122948 2.088706 198 183 157
0.9989156 -1.145033 2.1452 187 170 146
0.9785519 -1.168209 2.205036 167 148 124
0.9577894 -1.194846 2.270861 148 126 107
0.9357519 -1.22387 2.341931 135 113 94
0.9137301 -1.258725 2.422323 136 114 95
0.8889922 -1.294494 2.50721 137 116 96
0.8628982 -1.335072 2.60131 138 119 98
0.833864 -1.377834 2.702189 137 117 96
0.8008671 -1.421037 2.808195 134 115 94
0.7655895 -1.470656 2.927022 137 117 97
0.7265344 -1.524491 3.056814 142 125 104
0.6838435 -1.585699 3.202472 148 132 112
0.6371127 -1.657112 3.368982 157 142 126
0.5841923 -1.735236 3.553145 166 152 135
0.5247506 -1.825331 3.763756 179 167 152
0.2670366 -0.8028104 2.413381 255 254 255
0.2183172 -0.7741156 2.42176 255 254 255
0.07999355 -1.835694 4.276437 188 174 158
-0.01745673 -1.773271 4.285146 172 158 145
-0.1134483 -1.706304 4.284951 154 137 124
-0.2084229 -1.641378 4.286889 136 118 101
-0.3027261 -1.579017 4.292189 128 109 92
-0.3960726 -1.517127 4.297174 129 109 92
-0.4883419 -1.455394 4.30121 125 107 90
-0.4880359 -0.9613142 3.509474 66 23 19
-0.7401177 -1.239344 4.235983 118 93 74
-0.8336332 -1.192013 4.264476 116 91 68
-0.92329 -1.13868 4.279053 103 76 53
-1.007781 -1.079623 4.2787 80 55 39
-0.9679738 -0.8845776 3.921883 132 100 74
-1.05955 -0.8498086 3.968336 96 63 41
-1.186812 -0.729328 3.917304 115 84 58
-1.249389 -0.6725915 3.896223 69 46 31
-1.184882 -0.5331778 3.600965 76 59 38
-1.211095 -0.4665462 3.523476 77 62 46
-1.297546 -0.4382249 3.574539 26 14 7
-1.262582 -0.3471838 3.389715 83 67 47
-1.305577 -0.3013678 3.364285 93 76 55
-1.356732 -0.2608047 3.356371 91 75 55
-1.410379 -0.2221916 3.354361 92 77 57
0.9915188 -1.161723 2.066085 202 189 162
0.9715052 -1.184583 2.121441 190 175 149
0.9503096 -1.209159 2.180612 175 158 133
0.9285626 -1.237224 2.245585 155 134 111
0.9054606 -1.267791 2.315734 138 116 96
0.8815722 -1.302897 2.393504 133 110 91
0.8557685 -1.340948 2.477704 132 111 89
0.8281816 -1.383325 2.570261 135 116 95
0.7972232 -1.427048 2.668394 134 115 92
0.7631208 -1.473811 2.774399 134 113 93
0.7259068 -1.525387 2.890895 133 114 93
0.6849539 -1.582019 3.018907 136 116 96
0.6405736 -1.648259 3.164913 139 121 102
0.5911089 -1.72222 3.327845 147 131 111
0.5355994 -1.805206 3.510667 156 140 124
0.4745353 -1.911135 3.733679 169 155 141
0.23921 -0.8609195 2.41168 255 254 255
0.189925 -0.8332053 2.422343 255 254 255
0.02824144 -1.813501 4.05957 190 173 160
-0.06342703 -1.744155 4.05278 175 157 142
-0.1539184 -1.678403 4.050123 153 132 118
-0.2431032 -1.613611 4.047517 139 118 102
-0.3314852 -1.551604 4.048229 131 111 91
-0.4189271 -1.490847 4.049818 126 107 86
-0.5042434 -1.427845 4.0458 125 106 89
-0.5426121 -1.046548 3.516055 67 22 20
-0.746257 -1.233089 4.010411 121 97 76
-0.8315963 -1.182747 4.025354 116 88 65
-0.916779 -1.13278 4.040691 107 78 53
-1.00032 -1.081272 4.051988 103 74 49
-1.032883 -0.9733192 3.924952 128 99 74
-1.125069 -0.9375625 3.968951 96 67 43
-1.236936 -0.9181237 4.058167 88 60 41
-1.251003 -0.8121771 3.914574 107 78 54
-1.309306 -0.7505402 3.884034 63 43 25
-1.238308 -0.6023296 3.587275 78 58 38
-1.270021 -0.5374014 3.523695 69 50 34
-1.363654 -0.5126736 3.585718 26 14 9
-1.319855 -0.41311 3.390484 82 64 46
-1.365025 -0.3669306 3.369176 91 75 55
-1.415939 -0.3250345 3.360349 93 77 59
-1.470333 -0.2856384 3.358941 87 71 52
0.9652326 -1.200626 2.043553 208 195 171
0.9441401 -1.224213 2.097762 195 180 154
0.9216037 -1.249122 2.155273 182 165 140
0.8991318 -1.279145 2.219877 168 146 125
0.8746522 -1.310494 2.288354 145 123 103
0.8490653 -1.345973 2.363725 132 108 87
0.8223382 -1.386682 2.447562 131 109 90
0.7934735 -1.431378 2.539126 134 113 91
0.7615094 -1.47865 2.637411 135 115 93
0.7257384 -1.527547 2.741796 131 112 89
0.6864945 -1.580703 2.855632 132 110 91
0.6438079 -1.640888 2.982766 134 114 94
0.5968944 -1.70883 3.125005 135 117 97
0.5450008 -1.786361 3.285669 139 120 104
0.4871311 -1.87589 3.469131 147 131 114
0.4224307 -1.985065 3.686955 158 143 127
0.160688 -0.8961104 2.425827 255 254 255
-0.01765965 -1.77843 3.839986 190 173 158
-0.1041872 -1.711931 3.833863 175 154 138
-0.1896452 -1.648842 3.831437 154 132 114
-0.2736051 -1.58555 3.827222 137 116 100
-0.3569462 -1.525777 3.82731 131 110 88
-0.4389648 -1.466014 3.826084 128 107 85
-0.5191175 -1.405112 3.821389 126 104 85
-0.5969527 -1.342771 3.81235 129 106 89
-0.5944672 -1.125683 3.506005 66 21 20
-0.751532 -1.226958 3.805588 113 87 65
-0.8308107 -1.176052 3.814006 113 84 60
-0.908927 -1.124688 3.820613 126 98 72
-0.9845567 -1.071435 3.822078 125 96 70
-1.058722 -1.018103 3.821961 122 93 68
-1.131908 -0.9653593 3.821683 118 90 63
-1.204757 -0.9137948 3.822718 109 82 54
-1.27576 -0.8619531 3.821508 101 75 47
-1.341028 -0.8069962 3.810176 84 62 40
-1.284042 -0.6664687 3.556221 130 98 64
-1.316059 -0.6006304 3.496244 112 83 56
-1.383836 -0.4836152 3.400573 89 71 54
-1.427322 -0.4349529 3.376163 94 78 59
-1.477257 -0.391268 3.365199 92 76 58
-1.532779 -0.3512147 3.364932 82 66 43
0.9379194 -1.237458 2.01923 211 200 176
0.9164883 -1.263219 2.073544 201 189 161
0.8931283 -1.289479 2.130359 187 172 146
0.8692614 -1.319956 2.193192 173 153 131
0.843935 -1.353253 2.261123 152 131 108
0.8175268 -1.391259 2.336268 136 114 93
0.789608 -1.43414 2.419256 131 108 89
0.7591203 -1.480269 2.508965 133 112 90
0.7252024 -1.528233 2.604365 135 113 91
0.6879447 -1.579696 2.707551 132 110 91
0.6474746 -1.637345 2.821929 131 109 89
0.6023648 -1.698217 2.944978 129 108 86
0.5532571 -1.769023 3.084888 132 113 92
0.4989838 -1.850368 3.243571 133 113 95
0.4382778 -1.9435 3.423876 140 122 107
0.368558 -2.037639 3.61413 123 108 103
0.2841626 -2.034605 3.690922 181 163 145
0.1305173 -0.9590784 2.426693 255 254 255
0.07807778 -0.9571685 2.474376 255 254 255
-0.05871138 -1.743079 3.636546 190 172 153
-0.1410264 -1.683145 3.636684 173 153 135
-0.221984 -1.622639 3.634773 153 134 114
-0.3017166 -1.562818 3.632586 140 118 97
-0.3807299 -1.505421 3.632893 136 113 90
-0.4588544 -1.449151 3.633829 134 111 88
-0.5362594 -1.394212 3.635822 130 109 87
-0.6121495 -1.338559 3.635428 124 100 79
-0.6588821 -1.228822 3.536161 143 115 85
-0.75743 -1.223313 3.62325 112 85 62
-0.8315197 -1.172199 3.627088 131 104 77
-0.9048417 -1.12157 3.630829 127 98 71
-0.9771325 -1.07108 3.633766 124 95 68
-1.048367 -1.020783 3.635944 123 95 67
-1.117706 -0.9698712 3.635502 120 91 64
-1.187289 -0.9206682 3.637535 115 89 63
-1.256022 -0.8719208 3.639353 111 85 59
-1.321966 -0.8220751 3.63706 101 76 52
-1.316131 -0.7206793 3.498426 126 97 64
-1.351076 -0.6565876 3.447772 114 85 58
-1.411079 -0.6120932 3.446815 89 69 44
-1.44331 -0.5526545 3.399668 92 76 57
-1.491171 -0.5048708 3.382775 93 77 57
-1.541394 -0.4599238 3.371864 90 76 58
-1.599914 -0.4200027 3.375488 80 61 37
0.91163 -1.276339 1.996688 214 203 178
0.8884382 -1.301228 2.048538 204 192 166
0.8644835 -1.329353 2.105073 191 176 150
0.8400166 -1.362147 2.16783 178 159 136
0.8134061 -1.396356 2.234286 157 136 112
0.7857482 -1.435805 2.308157 139 115 94
0.7558997 -1.478558 2.3881 130 107 85
0.724235 -1.527255 2.477025 131 108 86
0.6892031 -1.578539 2.572214 131 110 87
0.6505579 -1.633107 2.674749 129 107 87
0.6081176 -1.692442 2.786625 125 104 82
0.5611368 -1.756124 2.908003 126 105 83
0.5097553 -1.829306 3.045109 127 106 84
0.4527529 -1.911849 3.198881 126 104 84
0.3892437 -2.007854 3.375185 95 81 74
0.3115924 -2.023989 3.465991 149 127 108
0.2280647 -1.979971 3.488041 176 153 138
0.0995443 -1.021077 2.423874 255 254 255
0.04644095 -1.01231 2.461575 255 254 255
-0.09635133 -1.715307 3.458228 192 170 152
-0.1745962 -1.657859 3.458906 171 149 130
-0.2516454 -1.600352 3.458419 155 134 112
-0.3271942 -1.541939 3.455445 145 124 102
-0.4023759 -1.487067 3.456499 139 117 91
-0.4764886 -1.432535 3.456996 142 119 94
-0.5499541 -1.379457 3.458694 138 116 89
-0.6224329 -1.326777 3.459979 144 121 98
-0.692175 -1.271172 3.455163 124 97 69
-0.7631236 -1.220504 3.45753 128 99 73
-0.8327467 -1.169584 3.458377 133 104 77
-0.9020538 -1.120032 3.460621 131 102 75
-0.9705461 -1.070979 3.462735 130 101 75
-1.038874 -1.023166 3.466227 127 99 72
-1.106471 -0.975796 3.469598 127 98 73
-1.171999 -0.9275579 3.470009 130 101 74
-1.237752 -0.880814 3.472467 127 99 71
-1.301087 -0.8331525 3.471586 128 102 71
-1.349735 -0.7756056 3.445109 108 85 53
-1.388474 -0.7139293 3.404494 125 98 72
-1.450147 -0.6705221 3.407337 105 80 55
-1.513611 -0.6289821 3.414116 146 116 85
-1.564689 -0.5811728 3.401857 140 111 79
-1.614054 -0.5340116 3.388833 142 112 81
-1.669211 -0.4910512 3.386275 124 98 72
0.8839961 -1.31215 1.971711 216 207 181
0.860772 -1.339968 2.024227 207 196 171
0.8360544 -1.369643 2.080199 197 182 156
0.8104597 -1.403468 2.141745 184 164 142
0.7827555 -1.438993 2.207103 167 143 122
0.7538127 -1.479701 2.279549 148 127 103
0.7227609 -1.52438 2.358438 131 107 86
0.6897708 -1.575328 2.446286 125 102 79
0.6532596 -1.628799 2.54013 126 102 81
0.6130552 -1.685859 2.641359 128 105 82
0.5688388 -1.74757 2.751481 125 104 82
0.5201215 -1.814898 2.872043 124 101 80
0.4664591 -1.890326 3.006308 124 103 81
0.4069259 -1.975131 3.156566 117 97 76
0.3370327 -2.025228 3.275651 121 102 79
0.2571532 -1.977238 3.289793 144 122 103
0.1775681 -1.928686 3.303027 168 144 125
0.06784286 -1.083072 2.41894 255 254 255
0.01433481 -1.068097 2.448312 255 254 255
-0.2048113 -1.632551 3.293768 174 150 127
-0.2782528 -1.577918 3.294589 161 138 117
-0.3501735 -1.521928 3.292511 148 125 102
-0.4215297 -1.468435 3.292833 141 119 93
-0.4925895 -1.417425 3.295773 142 117 92
-0.562362 -1.365813 3.296892 142 117 90
-0.6312238 -1.314762 3.297866 141 116 91
-0.6995193 -1.264909 3.299733 136 109 83
-0.7670192 -1.215654 3.301599 133 104 78
-0.8337057 -1.166935 3.303375 135 106 79
-0.9000972 -1.119459 3.306335 130 101 74
-0.9657548 -1.072461 3.309207 131 100 74
-1.031116 -1.026438 3.312951 132 103 76
-1.09553 -0.9805537 3.316028 134 105 78
-1.158956 -0.9348308 3.318429 132 105 77
-1.221044 -0.8890064 3.319544 135 109 81
-1.282164 -0.8435123 3.320197 136 109 81
-1.342039 -0.7981604 3.319928 135 109 81
-1.401007 -0.7532641 3.319394 129 102 72
-1.460585 -0.7098367 3.321095 138 110 80
-1.518101 -0.6660156 3.320539 144 116 85
-1.574854 -0.6227182 3.319924 145 117 85
-1.631151 -0.5800955 3.319693 146 118 88
-1.68662 -0.5379189 3.319255 135 109 79
0.8570596 -1.349358 1.947948 219 210 186
0.8326727 -1.377469 1.999016 210 200 177
0.8072494 -1.408818 2.054485 201 188 162
0.7807156 -1.444095 2.115169 188 169 143
0.7521845 -1.481694 2.180056 171 151 125
0.722159 -1.524278 2.251633 156 133 108
0.6898548 -1.570779 2.329391 130 107 84
0.655311 -1.623156 2.415432 130 107 86
0.617364 -1.678982 2.508084 128 105 82
0.5757948 -1.739553 2.608941 126 103 78
0.5298554 -1.804052 2.717741 126 103 80
0.479209 -1.87422 2.836662 124 100 77
0.4232528 -1.951563 2.967853 121 97 76
0.3597598 -2.020828 3.096532 79 64 52
0.2842524 -1.988591 3.1245 131 106 84
0.2077066 -1.934273 3.12924 142 118 97
0.1319372 -1.884558 3.138355 162 137 115
0.05671938 -1.835161 3.147355 184 159 139
0.03573127 -1.142035 2.408565 255 254 255
-0.01845412 -1.12632 2.43673 255 254 255
-0.233147 -1.613026 3.147365 167 143 120
-0.3026732 -1.557743 3.145182 150 129 105
-0.3711026 -1.503279 3.142976 147 124 99
-0.4396393 -1.453204 3.145649 146 124 98
-0.5074409 -1.403865 3.148511 144 119 94
-0.5741351 -1.354296 3.150194 141 117 90
-0.6403692 -1.306067 3.152956 137 111 85
-0.7060097 -1.258664 3.156123 135 107 79
-0.7705424 -1.211104 3.158192 131 102 75
-0.8346408 -1.164582 3.16103 134 103 75
-0.8985229 -1.119248 3.164984 134 104 75
-0.9617115 -1.074293 3.168771 136 108 80
-1.024204 -1.029715 3.172388 137 109 79
-1.085539 -0.9850116 3.174899 141 111 82
-1.145743 -0.9403291 3.176488 142 113 85
-1.205687 -0.8965611 3.178858 141 113 85
-1.264763 -0.8530763 3.18081 141 115 86
-1.323673 -0.8104601 3.183572 141 115 87
-1.381948 -0.7682657 3.186263 146 119 91
-1.438749 -0.7259108 3.187545 147 119 89
-1.494316 -0.6836628 3.187913 148 120 91
-1.550507 -0.6426816 3.190185 146 118 88
-1.605878 -0.6020002 3.192099 143 115 84
-1.658837 -0.560821 3.191451 145 119 88
0.8304307 -1.387227 1.924731 222 213 187
0.8045906 -1.414743 1.973764 213 204 178
0.7786551 -1.448377 2.029168 204 192 165
0.7510253 -1.484645 2.08864 191 176 148
0.7217156 -1.524565 2.153217 175 157 130
0.6904622 -1.56854 2.223524 159 138 112
0.6570531 -1.617424 2.300612 142 119 94
0.6212676 -1.672517 2.385991 128 105 82
0.5815634 -1.729325 2.476279 130 107 84
0.5382331 -1.791452 2.574948 127 104 81
0.490878 -1.860567 2.684033 126 103 80
0.4384876 -1.935132 2.802764 122 99 77
0.3799101 -2.01076 2.92755 68 52 42
0.3094899 -2.003376 2.97644 124 98 76
0.2356387 -1.949947 2.980712 134 109 86
0.1626239 -1.895772 2.983547 140 115 92
0.09041467 -1.845469 2.989717 150 127 106
0.01916741 -1.791479 2.991325 169 144 121
0.00249134 -1.207238 2.403671 255 254 255
-0.05140994 -1.182577 2.421535 255 254 255
-0.2588319 -1.593154 3.010288 166 145 123
-0.3249653 -1.538671 3.007286 154 133 109
-0.3906317 -1.487209 3.007016 150 127 102
-0.4562212 -1.438984 3.010016 147 124 97
-0.5212052 -1.391676 3.013473 142 117 90
-0.5851429 -1.344113 3.015829 136 110 82
-0.6484368 -1.29733 3.01847 132 103 77
-0.7117209 -1.252404 3.023015 134 105 78
-0.7745322 -1.20816 3.02788 135 106 77
-0.8356756 -1.162676 3.030133 139 108 79
-0.897536 -1.119708 3.035549 141 111 82
-0.9574671 -1.075328 3.037965 143 113 82
-1.01813 -1.033109 3.043192 147 117 86
-1.076362 -0.9891775 3.044706 145 116 87
-1.134608 -0.9464717 3.047493 147 119 89
-1.19221 -0.9041958 3.050206 147 118 89
-1.249096 -0.8622757 3.052711 146 118 91
-1.305358 -0.8207909 3.055162 147 120 90
-1.362029 -0.7805095 3.05918 147 121 93
-1.417856 -0.7403789 3.062675 149 121 92
-1.470962 -0.69921 3.062921 147 118 90
-1.525561 -0.6598494 3.066223 147 119 89
-1.578916 -0.6204617 3.0685 148 119 90
-1.627994 -0.5795144 3.065742 146 118 87
0.8034654 -1.424096 1.900846 224 215 190
0.7773536 -1.454214 1.950203 216 207 181
0.7500034 -1.487573 2.003662 206 196 168
0.7213887 -1.525117 2.062158 197 183 152
0.691062 -1.566612 2.125809 183 164 137
0.6591167 -1.613989 2.196417 164 143 115
0.6247089 -1.66595 2.273373 146 125 99
0.5868944 -1.720258 2.355232 130 107 84
0.5459048 -1.780172 2.444981 130 105 83
0.5008939 -1.844241 2.541861 129 104 81
0.4519008 -1.917082 2.650326 126 103 80
0.3976078 -1.995105 2.767904 87 68 53
0.3327937 -2.015619 2.837756 113 89 70
0.2615994 -1.965977 2.844415 131 104 80
0.1910214 -1.913158 2.847513 138 111 87
0.121298 -1.862167 2.851728 143 118 94
0.05233508 -1.812303 2.856451 149 124 100
-0.01602462 -1.764622 2.862829 164 138 117
-0.0861772 -1.248456 2.415762 255 254 255
-0.1716336 -1.38368 2.612885 219 220 212
-0.2824714 -1.57464 2.883672 165 144 120
-0.3456109 -1.521515 2.880743 154 134 108
-0.4087463 -1.472715 2.882009 152 130 103
-0.4716585 -1.426263 2.885384 143 119 90
-0.5341257 -1.380972 2.889542 135 108 80
-0.5962327 -1.336795 2.894503 130 102 74
-0.65729 -1.292114 2.898168 134 105 78
-0.7181923 -1.248813 2.903052 135 106 78
-0.7782266 -1.205431 2.907189 140 111 82
-0.8379858 -1.162983 2.91202 144 114 83
-0.8969664 -1.120619 2.916334 147 117 87
-0.9553068 -1.078577 2.920467 152 122 91
-1.012615 -1.036393 2.923667 150 120 91
-1.069329 -0.9946584 2.926845 152 121 93
-1.124744 -0.9526329 2.92874 150 122 92
-1.179785 -0.9113387 2.931057 148 120 89
-1.235881 -0.8719721 2.936058 149 120 93
-1.289862 -0.8315953 2.938449 150 123 94
-1.343745 -0.7920264 2.941548 152 124 96
-1.396738 -0.7526082 2.944108 150 122 90
-1.448985 -0.7134749 2.94637 147 119 88
-1.50126 -0.6751258 2.949415 149 120 91
-1.552523 -0.6368668 2.951768 149 121 90
-1.60164 -0.5981233 2.951996 146 120 88
0.7766069 -1.461092 1.877125 226 218 192
0.7498357 -1.492794 1.926035 218 209 183
0.7218078 -1.528077 1.979161 209 198 172
0.6922965 -1.567299 2.036999 200 185 157
0.6609052 -1.610338 2.099729 185 166 141
0.6277715 -1.659438 2.16931 167 146 120
0.5918074 -1.712027 2.244187 149 129 103
0.5525855 -1.767985 2.324568 135 112 87
0.510115 -1.830018 2.412927 129 106 83
0.4637427 -1.898109 2.509732 128 105 80
0.4130266 -1.974556 2.617421 112 88 69
0.3539825 -2.021272 2.704015 93 72 60
0.2856829 -1.979354 2.716188 133 105 83
0.2174598 -1.929511 2.721036 138 112 86
0.1499832 -1.880182 2.725803 140 113 90
0.08322343 -1.831946 2.731041 146 121 96
0.01723793 -1.782976 2.735031 152 127 103
-0.0481268 -1.735904 2.740303 158 133 108
-0.1224384 -1.319663 2.413662 255 254 255
-0.1798719 -1.301992 2.440018 252 250 249
-0.3031314 -1.552547 2.761127 166 144 118
-0.3647224 -1.505737 2.763842 157 135 109
-0.425809 -1.460221 2.76737 147 122 95
-0.4864001 -1.415723 2.771464 136 110 82
-0.5468563 -1.372929 2.777022 135 107 80
-0.6064563 -1.329843 2.781677 135 106 79
-0.6655578 -1.287354 2.786509 137 110 83
-0.7241005 -1.245283 2.791311 147 119 88
-0.7825482 -1.20438 2.797113 150 120 89
-0.8393299 -1.162036 2.80036 154 124 92
-0.8962815 -1.121248 2.80516 153 124 92
-0.9524843 -1.080548 2.809485 157 127 96
-1.008007 -1.040069 2.813509 155 125 96
-1.062015 -0.9989027 2.81578 155 125 95
-1.115718 -0.9585177 2.818542 153 125 94
-1.168963 -0.9186846 2.82147 155 126 97
-1.223019 -0.880509 2.82652 152 126 94
-1.275354 -0.841597 2.829619 156 128 99
-1.327343 -0.8032311 2.832962 153 124 95
-1.378881 -0.7652928 2.836363 154 126 96
-1.429254 -0.7272718 2.838825 153 126 96
-1.4793 -0.6897836 2.841534 152 124 93
-1.528298 -0.652356 2.84352 151 123 91
-1.576355 -0.6151016 2.844969 151 123 91
0.7497173 -1.497814 1.853296 228 219 193
0.72234 -1.531321 1.901881 218 209 183
0.6935858 -1.568445 1.954584 210 200 172
0.6632041 -1.609482 2.01184 200 188 161
0.6307484 -1.654064 2.07365 188 171 146
0.5965613 -1.705532 2.142665 171 150 126
0.5590961 -1.758856 2.215628 152 131 105
0.5185745 -1.817151 2.295081 139 117 90
0.474379 -1.879786 2.380919 128 105 82
0.4267742 -1.953575 2.47886 126 103 79
0.3726817 -2.01583 2.571431 58 45 32
0.3083777 -1.995845 2.599996 125 100 77
0.2421244 -1.944477 2.602745 136 109 83
0.1767655 -1.896972 2.608206 144 117 93
0.1120605 -1.850884 2.614427 149 124 97
0.04804266 -1.803785 2.619282 151 126 100
-0.01528998 -1.757199 2.624093 158 131 105
-0.07816894 -1.713026 2.630672 161 135 109
-0.1398749 -1.665051 2.633117 170 146 117
-0.1592649 -1.390132 2.408627 255 254 255
-0.2142243 -1.356572 2.418755 255 254 255
-0.3230801 -1.535616 2.651651 166 143 117
-0.3827909 -1.492283 2.656697 150 125 99
-0.4418452 -1.449161 2.661458 143 116 88
-0.5003866 -1.406677 2.666406 136 109 81
-0.5588245 -1.365725 2.672608 138 110 83
-0.6162236 -1.323924 2.677332 149 120 92
-0.6730158 -1.282436 2.681895 150 125 93
-0.7298592 -1.242454 2.6878 159 132 102
-0.7861874 -1.202748 2.693577 160 131 102
-0.8412462 -1.162168 2.697689 156 127 95
-0.8957525 -1.121988 2.701755 159 129 98
-0.9504053 -1.083106 2.707049 159 129 98
-1.003756 -1.043557 2.710838 159 129 98
-1.056392 -1.004203 2.714285 158 127 99
-1.108189 -0.96494 2.717211 159 129 100
-1.159964 -0.9266161 2.720936 156 128 97
-1.210871 -0.8883417 2.724086 154 127 95
-1.261944 -0.851052 2.728206 158 130 101
-1.311971 -0.8136501 2.731483 155 127 99
-1.36112 -0.7763397 2.734213 154 128 98
-1.409685 -0.7393695 2.736821 150 124 94
-1.458824 -0.7035031 2.740796 152 124 95
-1.506257 -0.6671826 2.743159 152 124 92
-1.552945 -0.6311034 2.7452 151 122 93
0.7228733 -1.534478 1.829509 230 223 200
0.6949453 -1.570079 1.877919 219 210 182
0.6651692 -1.607988 1.929495 211 200 173
0.6341118 -1.651664 1.986681 202 189 162
0.6005915 -1.697789 2.04757 190 173 148
0.5650809 -1.750336 2.115094 174 155 131
0.5262607 -1.804838 2.186499 158 135 112
0.4845836 -1.866426 2.265681 140 119 95
0.4389949 -1.931947 2.35078 123 102 78
0.3889034 -2.000249 2.441257 64 50 40
0.3289937 -2.00202 2.48393 119 94 73
0.2651981 -1.95862 2.492232 138 111 87
0.2018306 -1.912866 2.498309 147 119 96
0.1390693 -1.86864 2.505222 153 126 100
0.07686519 -1.824572 2.511881 158 134 107
0.015323 -1.779314 2.517109 162 135 109
-0.04566261 -1.735317 2.522989 161 136 107
-0.1061524 -1.692393 2.529406 165 141 113
-0.1661695 -1.650233 2.536126 167 143 114
-0.2239457 -1.599576 2.534336 172 148 118
-0.2819374 -1.555035 2.537708 176 151 128
-0.341488 -1.519414 2.549469 158 133 105
-0.400038 -1.481153 2.558376 153 127 99
-0.4572833 -1.440285 2.564248 148 122 92
-0.513596 -1.398662 2.568859 152 125 97
-0.5698655 -1.358691 2.574795 158 132 102
-0.6254523 -1.318634 2.580191 163 137 107
-0.6802167 -1.278316 2.584806 161 136 104
-0.7349036 -1.239209 2.590363 163 136 108
-0.7888668 -1.200034 2.595365 164 136 106
-0.8427294 -1.161821 2.601086 161 133 101
-0.895725 -1.123338 2.60599 161 131 100
-0.9482773 -1.085258 2.610919 161 131 100
-0.9997262 -1.046752 2.614739 162 132 101
-1.050054 -1.007943 2.61754 161 131 100
-1.100322 -0.9700826 2.621078 158 130 98
-1.151239 -0.9337538 2.626318 158 131 97
-1.200689 -0.8967597 2.630003 157 129 98
-1.249812 -0.8602659 2.633874 158 130 99
-1.297519 -0.8233477 2.636422 155 127 97
-1.345863 -0.7877092 2.640458 156 128 95
-1.39241 -0.7514257 2.642729 155 127 95
-1.439647 -0.7163481 2.646463 155 127 95
-1.484842 -0.6805785 2.648225 153 126 94
-1.529539 -0.6452166 2.649979 150 123 91
0.6961312 -1.57129 1.805884 235 230 208
0.6674293 -1.608259 1.853641 220 212 185
0.6371891 -1.649187 1.905493 212 201 174
0.6050195 -1.693847 1.961522 202 190 163
0.5705729 -1.742228 2.021952 192 175 150
0.5336141 -1.795079 2.087519 176 157 133
0.493591 -1.851607 2.157976 158 138 116
0.4504628 -1.91467 2.235568 140 119 97
0.4036949 -1.985178 2.321356 101 81 63
0.3480942 -2.0063 2.374673 96 77 56
0.2862467 -1.96104 2.380612 141 116 91
0.2252539 -1.92469 2.392899 151 125 99
0.1644191 -1.885565 2.402927 159 132 107
0.1039545 -1.844539 2.411234 162 136 107
0.04399298 -1.802384 2.418329 165 140 114
-0.01541099 -1.759873 2.424779 167 141 115
-0.0741054 -1.716164 2.429827 172 145 119
-0.1323022 -1.673689 2.435503 172 147 119
-0.1897525 -1.630546 2.440165 175 149 121
-0.2464953 -1.587389 2.444346 176 150 122
-0.3030306 -1.546428 2.450093 168 142 112
-0.3595075 -1.507502 2.457381 162 136 106
-0.4159774 -1.47017 2.465903 164 138 108
-0.4709569 -1.429782 2.471062 169 143 113
-0.5256243 -1.390323 2.476735 169 143 113
-0.5798176 -1.351242 2.482387 166 142 112
-0.6331488 -1.311695 2.487104 164 138 108
-0.6859511 -1.272512 2.491754 163 136 106
-0.7391391 -1.23531 2.498196 165 137 106
-0.7912059 -1.197224 2.503208 166 138 106
-0.8432958 -1.160244 2.509094 167 137 105
-0.8944667 -1.122864 2.514059 168 138 107
-0.944685 -1.085175 2.518151 165 135 104
-0.9957064 -1.049446 2.524299 163 133 102
-1.044322 -1.011678 2.527266 162 132 101
-1.09293 -0.974878 2.530979 160 130 98
-1.141914 -0.9393081 2.535897 159 131 99
-1.1902 -0.9037859 2.540388 158 130 99
-1.237887 -0.8684372 2.544616 159 129 99
-1.284441 -0.8328362 2.547897 156 128 96
-1.330616 -0.7976643 2.551258 156 128 96
-1.376586 -0.7630287 2.5549 155 127 95
-1.421519 -0.728308 2.557786 155 127 95
-1.46644 -0.6942371 2.56117 155 127 95
-1.508622 -0.6590759 2.561888 153 123 90
0.669735 -1.609242 1.782976 241 235 213
0.6402545 -1.647681 1.830146 226 219 194
0.6092529 -1.690666 1.881634 213 202 175
0.5759231 -1.736008 1.93635 204 192 165
0.5402781 -1.785241 1.995411 193 175 154
0.502098 -1.839339 2.059674 177 160 137
0.4610023 -1.898859 2.129794 156 140 114
0.4167916 -1.9667 2.208029 126 109 88
0.3665186 -2.017269 2.277457 41 29 24
0.3071196 -1.983969 2.291086 65 52 39
0.24755 -1.94494 2.300615 75 60 46
0.1882796 -1.902857 2.307706 79 63 49
0.1295427 -1.859093 2.313218 86 69 57
0.07155419 -1.812268 2.316001 90 73 56
0.01446651 -1.764261 2.317337 113 97 79
-0.04238233 -1.723275 2.323681 147 125 106
-0.09888965 -1.683956 2.331031 174 150 119
-0.1550386 -1.645395 2.338709 186 161 134
-0.2110366 -1.608435 2.347466 183 159 129
-0.2663637 -1.570118 2.354795 182 157 130
-0.3208909 -1.530541 2.360685 179 155 124
-0.3753284 -1.492699 2.367794 179 154 123
-0.4297155 -1.456233 2.375881 177 151 121
-0.4834774 -1.419201 2.383151 173 148 117
-0.5366961 -1.382025 2.389966 171 146 115
-0.5888632 -1.343644 2.395221 170 144 114
-0.641186 -1.306943 2.401811 165 139 109
-0.6924128 -1.269182 2.406919 165 139 107
-0.7436503 -1.232618 2.412913 167 139 107
-0.793609 -1.194937 2.417266 168 140 109
-0.8446254 -1.15998 2.4243 167 138 106
-0.893871 -1.123244 2.428889 164 134 103
-0.9426031 -1.086786 2.433354 165 135 103
-0.9908229 -1.050608 2.437696 165 135 104
-1.03853 -1.01471 2.441916 163 134 102
-1.08575 -0.9791206 2.446049 162 132 101
-1.132467 -0.9438165 2.450069 161 133 101
-1.17973 -0.9097968 2.455384 160 133 101
-1.225462 -0.8750221 2.459161 159 131 99
-1.269419 -0.8394576 2.461219 160 132 100
-1.315346 -0.8062684 2.466287 161 133 102
-1.359513 -0.7723064 2.469658 162 133 100
-1.404501 -0.7395677 2.474455 165 135 104
-1.449162 -0.7071267 2.479261 160 132 101
-1.489313 -0.6723369 2.479447 159 130 97
0.6432058 -1.646605 1.759753 246 238 217
0.6132959 -1.68809 1.807203 231 225 204
0.5812543 -1.731964 1.857639 214 204 175
0.5467609 -1.777799 1.910962 206 191 165
0.5101211 -1.828967 1.969331 194 177 152
0.4708506 -1.885267 2.032906 177 160 137
0.428473 -1.946626 2.101932 152 135 112
0.3826243 -2.014371 2.177561 50 40 31
0.3279219 -2.019912 2.215359 65 54 40
0.2704601 -2.003465 2.239556 66 55 43
0.2125976 -2.003218 2.275285 71 59 44
0.09485843 -1.906246 2.280799 105 88 73
0.03739651 -1.855406 2.281043 115 100 84
-0.0187358 -1.80094 2.277937 123 108 92
-0.07389201 -1.749184 2.276113 126 112 96
-0.128803 -1.704082 2.27877 120 105 89
-0.1834437 -1.662301 2.283574 112 98 83
-0.2372237 -1.619566 2.287178 104 92 77
-0.2899455 -1.57555 2.289234 102 87 71
-0.3420015 -1.532347 2.291442 96 81 67
-0.394105 -1.49221 2.295816 94 80 63
-0.4460508 -1.453691 2.30122 98 83 69
-0.4971017 -1.414418 2.305542 99 84 70
-0.5479526 -1.376382 2.310602 95 79 65
-0.5977277 -1.337377 2.31432 87 73 55
-0.6480401 -1.301038 2.320227 84 68 50
-0.6970934 -1.263401 2.32445 96 78 63
-0.7469038 -1.228356 2.330947 120 101 79
-0.7947838 -1.191026 2.334655 153 127 100
-0.8433661 -1.155926 2.340352 164 139 104
-0.8915358 -1.121091 2.345978 168 138 108
-0.9391618 -1.086341 2.351326 166 138 108
-0.9855592 -1.050858 2.3554 164 136 104
-1.031441 -1.015652 2.359349 162 134 100
-1.077906 -0.9819189 2.364684 165 137 106
-1.122787 -0.9472269 2.368369 161 133 101
-1.168381 -0.9139988 2.373515 163 133 102
-1.213645 -0.8810822 2.378674 159 132 99
-1.258267 -0.848197 2.383457 157 129 97
-1.302577 -0.8156418 2.388275 161 132 103
-1.346709 -0.7835031 2.393274 160 130 99
-1.392196 -0.7528574 2.400153 157 127 96
-1.435433 -0.721036 2.404817 161 131 98
-1.478015 -0.6892861 2.409124 158 128 98
0.6180784 -1.69016 1.739829 247 239 217
0.5863116 -1.728542 1.784239 238 230 207
0.5530937 -1.772475 1.833186 220 211 187
0.517678 -1.819997 1.885821 207 195 166
0.4799643 -1.872693 1.943251 194 179 155
0.4394611 -1.93016 2.005506 173 158 132
0.3958589 -1.993706 2.073634 103 87 75
0.345207 -2.019107 2.120818 70 59 47
0.2890615 -1.989744 2.135154 77 64 53
0.2332806 -1.974408 2.15853 63 54 42
-0.2696859 -1.664388 2.255955 100 87 70
-0.321353 -1.61706 2.255744 100 85 71
-0.3730345 -1.573704 2.258163 99 85 71
-0.4256737 -1.536267 2.265066 99 84 70
-0.4752747 -1.491434 2.265261 91 78 64
-0.5253322 -1.450593 2.268365 93 79 63
-0.5755413 -1.412079 2.273098 89 75 59
-0.6247711 -1.3729 2.276801 91 74 59
-0.6732972 -1.333844 2.280165 90 74 56
-0.7203527 -1.293515 2.281805 92 74 57
-0.7667558 -1.253693 2.283387 89 71 54
-0.8127043 -1.214675 2.285227 88 70 53
-0.8576744 -1.175584 2.286432 86 67 50
-0.9021341 -1.137169 2.287776 82 62 43
-0.9465424 -1.099985 2.289901 80 60 40
-0.9900011 -1.062756 2.291427 78 57 35
-1.033255 -1.026423 2.293421 81 59 40
-1.076898 -0.9915418 2.296608 79 58 42
-1.120613 -0.9575927 2.300452 81 61 43
-1.164645 -0.9247044 2.305188 77 57 39
-1.208128 -0.8919464 2.309679 74 56 37
-1.252732 -0.8607879 2.3159 76 57 40
-1.29893 -0.831394 2.324242 85 63 48
-1.344164 -0.8015208 2.33169 91 70 53
-1.388963 -0.7716516 2.338878 118 96 76
-1.434181 -0.7424026 2.346728 142 113 86
-1.479681 -0.7136073 2.355045 155 127 92
0.5895584 -1.718053 1.711752 246 239 215
0.5598919 -1.772208 1.762896 241 234 211
0.5250658 -1.813735 1.80914 228 218 196
0.4886514 -1.862584 1.860889 206 194 165
0.4500654 -1.918463 1.918301 194 180 150
0.4082237 -1.97634 1.978856 160 150 121
0.3611347 -2.015512 2.030761 65 56 46
0.3069769 -1.988665 2.04547 93 79 70
0.2525443 -1.9581 2.058012 73 64 52
0.140289 -2.342975 2.364134 104 86 67
0.07045172 -2.456019 2.475494 102 84 65
-0.006901503 -2.57019 2.591932 102 82 64
-0.09337497 -2.700072 2.723506 103 84 66
-0.6131141 -1.471847 2.25737 89 69 47
-0.6587012 -1.423752 2.253797 87 68 43
-0.7078458 -1.38567 2.25856 76 53 32
-0.749549 -1.334974 2.251101 87 68 50
-0.7941626 -1.292378 2.250403 87 67 51
-0.8375214 -1.249634 2.248883 86 68 49
-0.8806407 -1.208401 2.248168 86 68 49
-0.9235851 -1.168577 2.248233 85 65 47
-0.9673862 -1.131353 2.250424 84 64 44
-1.01022 -1.094062 2.25201 81 60 38
-1.050922 -1.055409 2.251504 81 59 41
-1.093127 -1.019712 2.253722 80 58 40
-1.13356 -0.9831256 2.254352 77 55 35
-1.174482 -0.9480812 2.256232 77 58 39
-1.215739 -0.914243 2.259061 78 56 37
-1.255906 -0.8802142 2.261137 75 53 34
-1.297293 -0.8479978 2.265056 74 52 33
-1.337935 -0.8158062 2.268558 76 56 37
-1.381784 -0.7866308 2.275813 76 56 37
-1.425634 -0.757768 2.283263 77 56 40
-1.465533 -0.7265322 2.286931 70 51 34
1.341802 -0.6870618 2.334337 137 110 88
1.340453 -0.687358 2.399746 141 113 94
1.33312 -0.6834639 2.460643 139 111 91
1.328623 -0.6816782 2.530245 144 118 99
1.324106 -0.6799734 2.604922 149 122 106
1.3201 -0.6787427 2.686179 147 123 108
1.313807 -0.6759863 2.769795 148 126 110
1.307436 -0.6733027 2.860156 146 128 111
-0.4063764 0.4840551 3.869268 95 62 36
-0.4573501 0.5245732 3.573147 126 100 80
-0.5024236 0.5559249 3.550828 85 63 42
-0.5516811 0.5897244 3.551182 27 11 4
1.317318 -0.7238843 2.320252 141 113 93
1.311259 -0.7224051 2.379692 138 110 90
1.305422 -0.721285 2.443594 135 110 89
1.300639 -0.7211852 2.513791 141 115 97
1.295883 -0.7213484 2.589323 145 119 105
1.290448 -0.721258 2.669598 146 121 106
1.283988 -0.7206709 2.754551 145 123 107
1.277191 -0.7201514 2.846078 145 125 111
1.272068 -0.7213221 2.949131 152 134 116
1.263016 -0.719825 3.053467 155 142 126
1.244941 -0.7116011 3.147631 165 152 137
1.222725 -0.70048 3.241278 172 166 149
0.6607276 -0.271587 2.391868 255 254 255
0.6252913 -0.2477188 2.407559 255 254 255
0.5926965 -0.2263798 2.435414 255 254 255
0.7691386 -0.4410093 4.446342 171 160 143
0.6845645 -0.3812445 4.422739 161 147 129
0.6002496 -0.3210407 4.385628 140 117 104
0.5258834 -0.2711084 4.421999 127 106 91
0.4507751 -0.2206009 4.457044 143 121 103
0.3736777 -0.1676411 4.468705 142 119 100
0.1446676 -0.008379137 4.460821 131 101 82
0.0703713 0.04370414 4.449217 131 101 82
-0.002932966 0.09478245 4.444518 111 81 63
-0.07617472 0.1450938 4.4556 90 56 38
-0.1493839 0.1951881 4.47092 107 79 59
-0.1696551 0.2338933 3.933537 146 109 81
-0.234016 0.2771212 3.96471 133 96 71
-0.3547435 0.3401166 4.417749 71 43 21
-0.4135662 0.4019111 3.960188 122 85 60
-0.4529905 0.4340246 3.8564 83 54 33
-0.5001639 0.4801927 3.563359 112 83 68
-0.5469715 0.5133074 3.549469 63 40 29
-0.597976 0.5484056 3.555829 28 12 8
1.292311 -0.7606729 2.305563 140 115 94
1.287621 -0.7619837 2.367922 136 108 89
1.280576 -0.7617016 2.431094 132 106 88
1.275091 -0.7630444 2.501454 139 113 96
1.269168 -0.7644271 2.576513 141 115 99
1.263578 -0.766533 2.658208 141 116 102
1.256503 -0.7678996 2.744007 142 119 104
1.250242 -0.77051 2.838924 143 123 106
1.243879 -0.7736795 2.942382 149 132 117
1.234147 -0.7746812 3.048496 152 137 125
1.213219 -0.7667072 3.139427 163 150 136
1.189705 -0.7571366 3.233312 172 164 147
1.169305 -0.7510964 3.345434 180 174 158
1.14694 -0.7442377 3.46514 192 186 168
1.131058 -0.7444515 3.619068 200 196 180
1.095098 -0.7273541 3.729278 219 218 201
0.6398079 -0.3094157 2.394317 255 254 255
0.603898 -0.2854025 2.410333 255 254 255
0.5697011 -0.2631944 2.434524 255 254 255
0.8888296 -0.6371897 4.468686 214 207 190
0.8042895 -0.5777071 4.466408 190 181 163
0.7192824 -0.5171496 4.454002 176 165 148
0.6344182 -0.4559294 4.431256 165 151 135
0.5487432 -0.3923025 4.383604 146 124 107
0.4731409 -0.3417291 4.417083 128 107 93
0.3970484 -0.2908322 4.450841 143 121 103
0.3197517 -0.2379933 4.469727 140 116 97
0.2424058 -0.1846878 4.482755 130 104 88
0.1651463 -0.1283297 4.453594 95 58 50
0.08950849 -0.07519446 4.452691 132 103 84
0.01501149 -0.02226263 4.443696 130 101 81
-0.05854237 0.02969404 4.438954 107 76 57
-0.1318934 0.08071112 4.445012 93 59 42
-0.2039808 0.1314098 4.443369 104 75 56
-0.2180949 0.1795716 3.924845 150 112 86
-0.2840725 0.2230051 3.963573 128 91 68
-0.4104363 0.279034 4.405799 67 39 19
-0.4590654 0.3482659 3.929918 118 81 56
-0.4992351 0.3831542 3.83905 73 49 33
-0.5093513 0.4057606 3.628859 69 45 30
-0.543519 0.4352889 3.553564 104 78 59
-0.5933174 0.4703419 3.552024 48 29 20
-0.6442545 0.5057301 3.556764 21 7 3
1.269079 -0.7993496 2.293579 139 114 91
1.264706 -0.8027981 2.357486 132 105 85
1.25689 -0.8037308 2.420681 134 106 87
1.249377 -0.8054201 2.489152 133 106 90
1.241862 -0.8076599 2.56302 133 106 89
1.234751 -0.8108871 2.643715 136 112 97
1.225783 -0.8131492 2.727847 137 117 101
1.219124 -0.8183005 2.824184 136 118 103
1.205404 -0.8178496 2.914747 132 115 101
1.122268 -0.7819065 3.139575 159 147 136
1.127785 -0.8043588 3.32039 171 162 149
1.121569 -0.8174129 3.490741 187 180 166
1.108467 -0.825761 3.662852 202 195 184
1.070076 -0.8100114 3.774946 217 216 203
0.6216864 -0.3517901 2.408935 255 254 255
0.5833145 -0.3255478 2.418555 255 254 255
0.546838 -0.301483 2.436294 255 254 255
0.839678 -0.7188139 4.480082 216 210 195
0.7524374 -0.6554751 4.466101 192 182 169
0.667195 -0.5938421 4.454929 179 165 149
0.5825673 -0.5319025 4.436511 166 154 137
0.496442 -0.4654045 4.383993 149 127 109
0.4194728 -0.4137196 4.412593 130 112 96
0.3424494 -0.3624682 4.445796 143 120 105
0.2645925 -0.3095084 4.468101 140 118 100
0.1865903 -0.2554013 4.480224 125 99 83
0.1094345 -0.1965025 4.439751 95 55 49
0.03341793 -0.1432201 4.446171 131 103 85
-0.04152605 -0.08967792 4.442638 128 98 79
-0.1153608 -0.03671197 4.437048 108 76 58
-0.1888126 0.01522224 4.438868 102 71 57
-0.2682412 0.1243643 3.924052 149 111 83
-0.3368882 0.1678625 3.974902 115 80 55
-0.4699658 0.2174072 4.412726 63 35 15
-0.5069852 0.2950542 3.911582 111 76 49
-0.5386259 0.3301383 3.788369 101 75 55
-0.5509384 0.3577366 3.604395 93 63 42
-0.589166 0.3903763 3.550615 96 70 54
-0.6407295 0.426515 3.555007 42 24 18
-0.6904814 0.4618815 3.554396 25 9 4
1.244453 -0.8373401 2.279765 138 110 91
1.237374 -0.8402917 2.340578 130 101 86
1.223386 -0.8374239 2.394875 114 82 69
1.190104 -0.8169649 2.420848 94 60 56
1.149107 -0.7893584 2.43464 89 57 53
1.121534 -0.7746972 2.473478 94 67 63
1.105755 -0.7719116 2.538133 99 76 73
1.094585 -0.7744489 2.61804 99 79 75
1.167853 -0.9219487 3.3365 170 159 146
1.142917 -0.9195378 3.45375 180 170 156
1.113729 -0.9143564 3.573131 193 184 170
1.081565 -0.9078924 3.698974 202 196 181
1.0422 -0.8953304 3.817779 215 213 198
0.5610731 -0.3657048 2.422837 255 254 255
0.5233127 -0.3405495 2.437594 255 254 255
0.7884077 -0.8016132 4.487407 221 214 197
0.6995838 -0.7351022 4.466569 197 187 169
0.6141282 -0.6725292 4.457242 181 168 154
0.5296631 -0.6101401 4.44392 169 156 141
0.4430493 -0.5401605 4.384815 150 130 110
0.3650163 -0.4876941 4.41166 133 113 99
0.2870091 -0.4360799 4.444817 141 119 102
0.2083129 -0.3823397 4.465625 138 114 95
0.1296873 -0.327547 4.478077 116 87 74
0.05294659 -0.2657709 4.427426 90 52 48
-0.0238727 -0.2129626 4.445087 127 99 83
-0.09909077 -0.1583029 4.440032 127 97 78
-0.1735148 -0.1046059 4.437953 112 82 61
-0.2473754 -0.0517566 4.439227 109 81 65
-0.3198591 0.06797343 3.926723 150 111 85
-0.3905678 0.1112899 3.983035 105 69 50
-0.5345796 0.1542534 4.440337 61 32 15
-0.5100586 0.1996942 3.963104 126 90 63
-0.5568203 0.2415739 3.900166 107 73 53
-0.5940238 0.3098598 3.585393 96 69 49
-0.6369088 0.3449912 3.552476 91 68 53
-0.6892107 0.3817702 3.558258 32 15 8
-0.7358815 0.4168066 3.546632 34 23 9
1.170804 -0.8283395 2.193156 115 67 56
1.150558 -0.819822 2.231218 107 62 52
1.12831 -0.8097415 2.268604 98 57 47
1.11328 -0.8073277 2.320908 95 58 53
1.163475 -0.9045691 2.694861 141 118 101
1.154685 -0.9139019 2.791551 144 123 109
1.152049 -0.9315375 2.911821 147 129 114
1.145072 -0.9464962 3.035021 154 140 123
1.135078 -0.9603342 3.164796 163 149 133
1.123747 -0.9751767 3.306736 173 159 145
1.104343 -0.9833494 3.443709 182 171 157
1.07958 -0.9879481 3.582639 191 182 168
1.048088 -0.9872437 3.71901 201 194 180
1.007116 -0.9774168 3.841612 214 210 196
0.537315 -0.4056541 2.423203 255 254 255
0.4990886 -0.380336 2.438239 255 254 255
0.7349336 -0.885024 4.489307 222 216 199
0.6453916 -0.8161704 4.46579 199 191 176
0.5597827 -0.75291 4.459109 184 172 155
0.4752699 -0.6900612 4.450065 170 156 142
0.3888992 -0.6178905 4.391972 151 133 116
0.3093174 -0.5627578 4.408365 131 113 96
0.2304155 -0.5111976 4.443697 144 122 106
0.1509319 -0.4576958 4.469684 142 119 102
0.0715366 -0.4020619 4.48216 105 73 63
-0.00418143 -0.3354671 4.410775 93 56 53
-0.2322892 -0.1733801 4.432794 104 77 63
-0.3056906 -0.119187 4.427353 104 74 63
-0.3725773 0.01035632 3.929256 145 108 82
-0.5990125 0.0891311 4.456333 56 31 12
-0.5611386 0.1439231 3.950039 125 90 63
-0.6077629 0.1874338 3.890676 103 68 47
-0.6381326 0.2617693 3.569061 113 87 71
-0.6853278 0.2986119 3.553271 80 57 46
-0.7401782 0.3363298 3.5663 25 8 5
-0.7784808 0.3703564 3.528103 55 37 26
1.173497 -0.8924723 2.219892 153 128 106
1.174708 -0.9078227 2.294461 142 116 95
1.164321 -0.9121137 2.355956 131 106 86
1.156438 -0.9200615 2.426821 133 108 86
1.148475 -0.9291134 2.50368 139 116 97
1.142613 -0.9418498 2.591576 145 122 105
1.13255 -0.9514813 2.679382 142 121 105
1.124182 -0.964769 2.779619 144 124 109
1.115535 -0.9797944 2.889874 149 133 116
1.106538 -0.996804 3.011689 158 142 126
1.095721 -1.014384 3.143342 163 148 134
1.081363 -1.030691 3.281851 172 159 145
1.062539 -1.044743 3.425663 180 169 155
1.040376 -1.058257 3.579351 188 181 166
1.010067 -1.064825 3.728097 200 193 178
0.9677963 -1.058414 3.855242 213 209 195
0.5130093 -0.4465327 2.423589 255 254 255
0.4743202 -0.4210879 2.439011 255 254 255
0.6788882 -0.9675816 4.481831 223 217 200
0.5898844 -0.8986765 4.463836 200 191 174
0.5045501 -0.8361561 4.464857 183 172 157
0.4194809 -0.7719292 4.456072 170 157 142
0.3332876 -0.6973163 4.397992 151 133 116
0.2524468 -0.638819 4.402726 133 112 100
0.1726513 -0.5881953 4.444104 140 120 104
0.09229681 -0.5334389 4.466288 137 115 97
-0.3755647 -0.1012776 4.010965 131 96 71
-0.4264958 -0.04854511 3.932069 142 103 79
-0.6563792 0.02372678 4.430658 60 34 16
-0.6126027 0.08750878 3.935831 122 87 62
-0.6605963 0.132487 3.885788 82 52 33
-0.6843991 0.2133781 3.558865 116 89 69
-0.7356492 0.251383 3.557124 62 41 27
-0.7922615 0.2897177 3.574007 22 8 4
-0.8199112 0.3233802 3.505212 82 63 46
1.151428 -0.933428 2.210065 164 141 120
1.146752 -0.9450274 2.276711 151 125 105
1.138032 -0.9533253 2.342061 139 113 93
1.128641 -0.9621132 2.411781 143 117 99
1.119904 -0.9730656 2.488922 141 117 100
1.110923 -0.9853658 2.57282 143 121 103
1.100992 -0.9983855 2.663024 143 123 107
1.091049 -1.013513 2.762582 147 129 112
1.079605 -1.029206 2.869576 149 131 114
1.068771 -1.048522 2.990579 156 140 123
1.055781 -1.068334 3.120862 163 149 133
1.039362 -1.087265 3.258522 171 156 142
1.020176 -1.106592 3.407037 178 167 153
0.9983691 -1.12708 3.569299 187 178 164
0.9684011 -1.140713 3.728099 198 190 175
0.9264213 -1.140701 3.866087 208 202 189
0.4882145 -0.4885221 2.424395 255 254 255
0.4487187 -0.4623032 2.438379 255 254 255
0.620658 -1.048751 4.465094 223 217 200
0.5332249 -0.9830415 4.462159 202 192 175
0.4475949 -0.9203823 4.466777 183 173 156
0.3620781 -0.8549703 4.458858 169 155 139
0.2762912 -0.7789361 4.404876 149 131 114
0.1945029 -0.7162097 4.396564 131 114 99
0.1136474 -0.6660301 4.440644 142 122 106
0.03253987 -0.6104122 4.461516 139 116 99
-0.1984439 -0.4232173 4.393648 124 94 77
-0.2776402 -0.371076 4.423601 117 87 68
-0.353855 -0.3154672 4.428423 78 46 32
-0.4294962 -0.2604352 4.43391 96 70 54
-0.4236907 -0.1592696 3.96767 134 98 71
-0.4815766 -0.1087466 3.9347 129 92 66
-0.6640614 0.03055028 3.919064 112 79 53
-0.7177161 0.07624412 3.893528 73 48 36
-0.7321293 0.1643666 3.551423 114 86 68
-0.7872569 0.2030921 3.561529 46 27 16
-0.844497 0.2418417 3.578476 20 6 3
-0.8632662 0.2764417 3.487262 98 78 61
1.123992 -0.9690372 2.192194 174 150 127
1.117483 -0.9809335 2.256911 155 131 108
1.108683 -0.9915072 2.323182 142 117 96
1.098705 -1.002154 2.393148 141 115 95
1.088749 -1.014494 2.46958 141 117 100
1.079005 -1.029026 2.553838 146 124 106
1.067965 -1.044101 2.643948 141 120 105
1.056265 -1.06081 2.742271 151 130 114
1.044119 -1.079822 2.850756 152 134 117
1.030738 -1.1005 2.969244 155 139 122
1.016464 -1.123853 3.10063 161 144 130
0.9983547 -1.146075 3.238789 168 154 136
0.9779215 -1.16993 3.389979 177 166 152
0.9544165 -1.194971 3.554656 186 174 163
0.9242392 -1.215731 3.722199 195 186 174
0.8845756 -1.227003 3.880714 205 198 183
0.4617909 -0.5292831 2.419558 255 254 255
0.422308 -0.5038733 2.436235 255 254 255
0.5617563 -1.131449 4.449316 223 215 198
0.4754818 -1.069798 4.462153 201 189 171
0.3891647 -1.005966 4.466705 182 171 154
0.303201 -0.9392979 4.45931 168 156 139
0.2176233 -0.8601481 4.402708 145 127 110
0.1354719 -0.7953447 4.391432 129 111 94
0.05349313 -0.7450631 4.4356 123 100 88
-0.02856043 -0.6898303 4.460914 141 118 101
-0.2603316 -0.4987908 4.397467 125 96 73
-0.3381767 -0.443125 4.408899 115 86 69
-0.413364 -0.385562 4.40531 78 45 32
-0.4870346 -0.3283755 4.39877 96 70 53
-0.4744723 -0.218774 3.940081 139 102 75
-0.5375954 -0.1701536 3.935936 131 95 68
-0.7185273 -0.02754165 3.911536 114 79 56
-0.7753745 0.01872235 3.898259 71 49 33
-0.7815873 0.1145676 3.547045 84 61 45
-0.8392141 0.153693 3.563531 33 16 6
-0.8948745 0.192784 3.574444 22 9 6
-0.9055454 0.2290975 3.46551 102 80 62
1.095984 -1.004131 2.173486 177 154 129
1.089167 -1.01811 2.238731 163 140 116
1.078742 -1.029156 2.303363 148 123 102
1.06862 -1.042313 2.374385 140 116 97
1.057606 -1.056264 2.450424 140 117 98
1.046913 -1.072891 2.534736 143 121 103
1.035276 -1.090819 2.62592 143 123 107
1.0226 -1.110247 2.724905 151 131 113
1.008368 -1.130811 2.831791 149 129 110
0.9934473 -1.154291 2.950385 154 136 119
0.9766744 -1.179524 3.07975 158 141 126
0.9563286 -1.204298 3.216821 166 149 134
0.9341773 -1.232222 3.369294 173 161 144
0.9092144 -1.262594 3.537393 178 167 154
0.8783944 -1.290668 3.712869 190 184 169
0.8389395 -1.311097 3.884747 200 193 179
0.4355308 -0.5723758 2.418443 255 254 255
0.3951644 -0.5457984 2.432772 255 254 255
0.5034219 -1.220818 4.448231 219 213 191
0.4164647 -1.158787 4.462841 199 188 171
0.3292241 -1.092274 4.462945 181 170 153
0.2428469 -1.024024 4.454897 169 155 136
0.1577005 -0.9427589 4.399376 146 128 113
0.07531053 -0.8756753 4.38495 127 110 99
-0.00790067 -0.8260849 4.432164 140 119 103
